0 0 0 0 0 0 0 0 0 0 0 0 0 0 0 0 0 0 0 0 0 0 0 0 0 0 0 0 0 0 0 0 0 0 0 0 0 5 5 11 15 16 20 26 26 27 36 45 54 65 69 65 74 79 79 84 98 103 127 131 140 170 176 177 178 182 183 183 183 184 184 184 184 184 184 183 183 183 182 182 187 187 187 187 188 190 190 191 190 190 190 190 190 188 187 183 186 186 186 185 184 182 176 183 183 182 175 181 180 177 171 167 168 168 164 165 164 164 163 164 160 162 167 168 170 170 166 172 173 173 174 170 174 174 172 171 170 165 166 167 165 164 164 162 158 156 157 156 155 152 146 145 145 146 149 149 150 150 153 159 159 167 175 178 176 175 175 175 178 180 175 179 177 171 176 176 167 166 171 171 167 176 176 176 176 176 176 176 178 178 174 169 173 173 171 164 164 156 168 169 166 164 163 165 166 163 167 164 163 167 167 165 161 169 170 172 176 176 177 177 176 174 173 170 163 179 175 175 179 179 180 181 182 181 182 179 182 182 183 182 182 178 179 182 182 182 182 183 183 183 185 180 185 187 185 186 187 187 188 189 190 192 193 194 194 194 194 195 195 196 195 195 195 195 194 190 185 185 181 170 170 170 153 146 136 131 111 110 110 105 100 94 89 79 71 66 59 49 43 32 16 22 16 11 6 6 6 6 6 5 0 0 0 0 0 0 0 0 0 0 0 0 0 0 0 0 0 0 0 0 0 0 0 0 0 0 0 0 0 0 0 0 0 0 0 0 0 0 0 0 0 0 0 0 0
0 0 0 0 0 0 0 0 0 0 0 0 0 0 0 0 0 0 0 0 0 0 0 0 0 0 0 0 0 0 0 0 0 0 0 0 0 0 5 5 5 14 17 20 26 25 32 35 49 49 64 69 69 74 79 79 84 98 107 123 130 139 155 176 177 178 183 183 184 183 184 184 184 184 184 184 184 184 184 184 183 187 187 187 187 187 191 191 190 190 190 191 189 190 189 184 187 187 185 184 185 182 185 183 182 182 184 182 180 180 177 168 168 167 166 167 167 167 163 164 164 161 167 167 170 170 165 172 172 172 173 170 175 173 173 172 167 165 166 165 165 167 165 162 159 156 156 157 154 152 147 148 147 148 150 142 151 152 152 159 165 163 175 177 177 175 177 176 178 180 176 178 178 170 175 174 166 165 171 172 169 173 175 175 176 176 176 177 177 173 170 170 172 171 162 162 165 167 168 169 166 164 159 165 167 168 162 163 167 167 166 168 166 171 175 175 176 176 176 175 173 173 165 177 179 173 180 169 175 176 180 181 181 180 180 180 176 181 182 183 182 182 181 181 182 181 180 181 180 181 181 181 184 181 186 188 189 189 190 191 192 195 195 194 194 195 195 196 196 196 196 196 195 194 189 184 185 180 170 170 170 147 147 136 131 109 110 110 105 100 94 90 79 78 69 59 49 43 32 17 22 16 11 6 6 6 6 6 5 0 0 0 0 0 0 0 0 0 0 0 0 0 0 0 0 0 0 0 0 0 0 0 0 0 0 0 0 0 0 0 0 0 0 0 0 0 0 0 0 0 0 0 0 0 0
0 0 0 0 0 0 0 0 0 0 0 0 0 0 0 0 0 0 0 0 0 0 0 0 0 0 0 0 0 0 0 0 0 0 0 0 0 0 0 5 5 10 16 20 20 25 27 32 40 48 53 64 68 69 74 79 79 89 92 107 127 130 129 154 171 176 177 182 183 183 184 183 183 183 184 184 179 184 184 184 184 184 183 187 187 187 187 191 191 190 190 189 190 190 190 184 182 187 186 186 183 186 185 181 185 185 185 183 183 181 181 171 172 166 166 164 166 167 166 165 164 156 168 171 171 171 165 171 171 172 174 166 175 173 173 172 167 166 166 170 163 167 165 158 159 155 157 157 155 151 150 148 146 145 150 149 150 150 153 159 164 166 167 176 177 177 177 177 178 181 176 173 178 170 174 172 165 166 170 172 167 174 174 174 174 174 175 174 166 169 170 172 171 164 161 164 167 169 171 167 166 162 164 167 166 162 163 166 167 167 169 172 172 175 175 175 175 175 175 173 172 168 177 174 175 179 175 181 177 174 178 180 179 179 178 178 181 181 181 183 182 183 182 175 182 181 181 181 181 181 182 183 186 186 189 183 190 191 193 193 194 194 195 195 195 195 195 196 197 197 196 196 196 184 184 178 180 170 170 159 147 142 136 131 110 110 110 105 100 94 90 80 78 66 58 49 43 32 22 22 16 11 6 6 6 6 6 5 0 0 0 0 0 0 0 0 0 0 0 0 0 0 0 0 0 0 0 0 0 0 0 0 0 0 0 0 0 0 0 0 0 0 0 0 0 0 0 0 0 0 0 0 0 0 0
0 0 0 0 0 0 0 0 0 0 0 0 0 0 0 0 0 0 0 0 0 0 0 0 0 0 0 0 0 0 0 0 0 0 0 0 0 0 0 0 5 5 14 16 19 19 28 27 32 39 47 47 59 72 69 74 79 79 88 92 102 126 130 135 155 171 176 177 178 181 182 182 183 183 184 183 183 183 184 184 184 183 184 183 188 188 187 188 191 191 190 190 189 189 189 184 187 185 181 185 184 186 186 186 181 186 186 183 184 182 181 180 177 175 173 163 166 168 167 169 167 163 164 162 172 165 164 170 171 170 173 170 175 173 169 171 172 165 164 168 167 166 164 161 158 155 156 156 153 151 150 149 147 147 150 150 151 152 153 159 161 166 170 170 176 175 176 176 177 169 176 179 178 171 174 173 168 167 165 165 163 169 169 169 163 164 167 166 164 165 166 166 159 155 158 158 163 166 165 160 157 158 161 163 159 158 161 162 162 166 167 161 170 171 171 170 170 169 168 167 169 161 173 168 162 174 174 183 182 176 173 179 178 177 177 178 179 176 181 182 177 183 182 182 185 184 184 184 183 184 184 187 187 187 188 187 187 186 192 192 194 194 195 196 196 197 196 196 196 196 196 196 185 185 179 179 168 169 153 147 146 136 131 110 110 110 104 99 93 79 79 79 65 64 49 43 32 22 22 16 6 6 6 6 6 6 6 5 0 0 0 0 0 0 0 0 0 0 0 0 0 0 0 0 0 0 0 0 0 0 0 0 0 0 0 0 0 0 0 0 0 0 0 0 0 0 0 0 0 0 0 0 0 0 0
0 0 0 0 0 0 0 0 0 0 0 0 0 0 0 0 0 0 0 0 0 0 0 0 0 0 0 0 0 0 0 0 0 0 0 0 0 0 0 0 0 5 5 14 16 19 22 27 32 34 43 42 47 59 72 69 74 79 79 88 92 106 126 135 136 150 155 175 176 177 182 182 182 183 183 183 183 183 183 183 184 184 183 183 184 184 189 188 189 188 191 190 190 189 187 181 185 185 184 184 188 187 187 187 182 184 185 185 185 183 182 179 179 175 169 173 172 170 167 169 166 163 165 171 171 170 164 169 170 170 173 167 174 173 173 172 172 165 165 168 168 166 164 161 158 154 154 154 153 152 150 149 144 150 153 154 154 155 155 159 163 168 172 175 170 175 176 178 178 176 177 179 179 167 173 173 168 167 171 173 168 175 174 175 173 173 172 168 170 170 170 159 158 159 159 160 166 170 162 159 161 163 166 162 161 164 166 166 169 172 175 176 175 175 175 175 174 174 172 173 176 179 173 177 178 177 178 180 181 181 174 172 172 180 176 178 179 181 182 183 185 184 185 186 185 187 188 187 187 188 186 186 187 189 189 187 187 188 189 188 193 194 196 197 197 197 197 197 197 196 197 187 186 181 180 169 169 152 146 146 141 131 110 110 110 104 99 93 78 79 79 65 61 48 48 32 22 27 16 6 6 6 6 6 6 6 5 0 0 0 0 0 0 0 0 0 0 0 0 0 0 0 0 0 0 0 0 0 0 0 0 0 0 0 0 0 0 0 0 0 0 0 0 0 0 0 0 0 0 0 0 0 0 0 0
0 0 0 0 0 0 0 0 0 0 0 0 0 0 0 0 0 0 0 0 0 0 0 0 0 0 0 0 0 0 0 0 0 0 0 0 0 0 0 0 0 0 5 8 12 15 22 22 27 32 34 43 42 43 63 68 70 69 74 79 88 92 109 121 135 136 149 154 174 176 177 181 182 182 182 182 183 183 182 182 183 183 184 183 183 183 183 188 188 183 188 191 184 189 187 182 184 184 184 186 187 188 187 186 186 186 186 185 185 184 183 179 178 177 176 168 173 173 172 169 167 164 170 170 172 171 164 170 170 171 175 169 170 164 173 172 172 164 164 164 167 167 164 161 158 153 153 155 154 152 150 149 151 151 152 155 155 157 157 159 164 168 172 176 176 171 177 178 178 176 177 179 177 171 174 174 167 168 171 172 168 174 174 169 172 170 167 170 170 170 165 150 159 160 165 165 172 164 156 159 161 165 162 160 162 165 166 168 172 175 176 175 174 175 175 168 172 172 173 175 176 172 171 176 177 171 178 178 178 179 178 168 171 179 180 182 181 182 178 185 186 186 188 187 187 187 187 189 189 188 188 188 187 187 188 188 188 188 190 191 191 190 195 196 197 197 197 197 197 198 187 186 181 181 170 157 151 144 146 141 120 110 110 110 104 99 94 83 79 78 65 61 48 48 32 22 27 16 6 6 6 6 6 6 6 5 0 0 0 0 0 0 0 0 0 0 0 0 0 0 0 0 0 0 0 0 0 0 0 0 0 0 0 0 0 0 0 0 0 0 0 0 0 0 0 0 0 0 0 0 0 0 0 0 0
0 0 0 0 0 0 0 0 0 0 0 0 0 0 0 0 0 0 0 0 0 0 0 0 0 0 0 0 0 0 0 0 0 0 0 0 0 0 0 0 0 0 0 5 8 11 21 22 22 27 32 33 42 42 47 63 68 70 69 74 79 88 97 108 123 136 141 144 153 170 176 177 177 176 181 182 182 182 182 183 182 183 183 183 184 184 183 183 183 187 187 186 188 189 187 182 185 185 183 187 187 187 176 185 185 183 185 184 186 185 183 180 180 173 176 173 172 173 171 167 171 164 169 167 171 170 163 168 169 170 174 169 174 175 173 165 171 164 165 169 168 167 166 162 157 150 155 156 154 152 152 150 148 153 154 157 158 158 160 160 163 172 172 175 178 178 174 180 180 173 177 178 177 170 174 174 169 169 172 172 168 171 169 172 166 167 170 170 169 164 160 154 158 160 161 169 169 162 160 162 164 159 160 163 164 166 169 172 174 175 175 174 176 175 173 171 171 171 174 171 176 173 173 177 178 175 176 177 177 177 176 176 171 174 175 181 184 184 186 186 187 187 188 189 189 188 187 188 190 189 189 190 189 190 190 188 188 183 189 190 191 192 191 188 196 197 197 197 198 187 187 181 181 169 157 151 144 145 141 125 110 111 111 106 100 94 84 79 79 66 64 48 42 27 22 27 22 6 6 6 6 6 6 6 5 0 0 0 0 0 0 0 0 0 0 0 0 0 0 0 0 0 0 0 0 0 0 0 0 0 0 0 0 0 0 0 0 0 0 0 0 0 0 0 0 0 0 0 0 0 0 0 0 0 0
0 0 0 0 0 0 0 0 0 0 0 0 0 0 0 0 0 0 0 0 0 0 0 0 0 0 0 0 0 0 0 0 0 0 0 0 0 0 0 0 0 0 0 0 8 7 8 21 22 22 32 34 33 42 41 51 63 67 69 69 74 79 88 97 102 122 135 142 145 144 164 176 177 177 181 181 181 181 182 181 182 182 182 183 184 183 184 183 182 181 180 184 185 180 186 177 187 185 188 188 188 188 185 184 184 185 185 186 185 184 183 181 179 178 174 172 166 173 172 170 171 167 168 172 171 169 164 166 161 170 174 169 174 175 171 171 170 164 165 169 164 168 164 161 157 155 156 156 154 151 151 150 148 155 158 159 160 160 160 160 163 170 175 175 177 178 180 176 180 166 176 177 177 173 177 177 169 169 171 171 166 169 171 164 169 170 171 170 165 162 161 157 162 169 172 172 164 161 162 164 160 162 164 163 164 168 171 174 175 175 175 175 174 172 164 169 169 173 175 174 170 178 177 177 177 174 175 176 177 175 174 175 175 172 169 183 184 186 187 182 187 187 189 189 189 183 187 188 188 190 186 191 192 193 190 190 190 189 189 189 190 190 190 192 193 190 191 198 187 187 181 181 169 157 145 144 144 140 124 111 111 111 106 100 84 83 79 79 70 64 48 42 28 22 27 17 6 6 6 6 6 6 6 6 5 0 0 0 0 0 0 0 0 0 0 0 0 0 0 0 0 0 0 0 0 0 0 0 0 0 0 0 0 0 0 0 0 0 0 0 0 0 0 0 0 0 0 0 0 0 0 0 0 0 0
0 0 0 0 0 0 0 0 0 0 0 0 0 0 0 0 0 0 0 0 0 0 0 0 0 0 0 0 0 0 0 0 0 0 0 0 0 0 0 0 0 0 0 0 0 7 7 13 21 22 22 32 33 36 42 46 51 63 62 69 69 74 79 88 97 103 121 140 141 145 151 149 172 177 177 181 181 182 182 182 182 182 182 182 182 182 181 182 176 180 180 179 183 182 186 182 182 189 190 190 188 187 186 185 185 185 181 185 184 183 178 181 179 177 174 173 173 171 171 165 170 167 171 172 164 168 161 166 166 170 174 169 174 169 172 171 165 164 164 169 168 167 165 161 158 155 156 156 154 151 148 152 156 157 159 162 162 161 162 162 166 163 175 175 178 179 175 181 176 173 176 177 177 173 178 177 169 167 170 169 163 169 169 167 168 170 170 167 164 163 161 157 165 174 175 166 161 163 162 159 162 163 163 165 169 170 174 175 175 175 175 174 171 168 168 169 167 174 174 175 173 178 178 176 176 173 169 176 177 175 175 175 175 176 167 175 183 185 187 186 187 188 189 189 188 187 188 188 190 189 191 192 194 193 193 192 190 189 190 189 190 190 190 190 191 194 183 180 187 181 181 157 156 145 145 145 144 123 115 111 111 105 100 84 84 79 79 72 58 48 42 27 22 27 12 6 6 6 6 6 6 6 6 5 0 0 0 0 0 0 0 0 0 0 0 0 0 0 0 0 0 0 0 0 0 0 0 0 0 0 0 0 0 0 0 0 0 0 0 0 0 0 0 0 0 0 0 0 0 0 0 0 0 0 0
0 0 0 0 0 0 0 0 0 0 0 0 0 0 0 0 0 0 0 0 0 0 0 0 0 0 0 0 0 0 0 0 0 0 0 0 0 0 0 0 0 0 0 0 0 1 7 11 12 16 21 22 32 33 36 41 47 50 57 61 69 69 74 79 86 96 103 121 141 141 144 150 150 165 176 177 181 182 182 182 182 182 182 182 181 181 181 180 180 180 179 178 178 178 187 183 186 189 189 188 177 187 187 186 185 184 184 184 183 183 178 180 179 177 174 172 168 171 174 171 170 167 171 171 168 167 161 166 166 169 174 168 172 173 172 172 170 164 163 165 167 168 161 162 158 155 157 157 154 151 152 154 158 159 161 164 164 163 163 164 167 174 176 175 179 179 177 181 178 169 170 177 177 175 178 176 167 167 170 166 164 167 165 167 169 170 168 164 162 159 160 162 174 175 164 162 162 161 158 161 162 164 165 169 170 169 175 175 175 176 174 170 167 165 169 172 172 167 174 169 177 173 177 175 175 172 172 174 176 177 175 177 176 175 171 174 175 183 185 186 181 185 183 189 189 188 188 188 190 190 191 192 193 194 195 193 192 192 189 188 190 191 190 190 191 181 182 176 178 169 157 151 145 146 144 143 123 114 111 106 105 95 85 84 79 79 72 58 44 47 27 22 27 11 12 6 6 6 6 6 6 6 5 0 0 0 0 0 0 0 0 0 0 0 0 0 0 0 0 0 0 0 0 0 0 0 0 0 0 0 0 0 0 0 0 0 0 0 0 0 0 0 0 0 0 0 0 0 0 0 0 0 0 0 0
0 0 0 0 0 0 0 0 0 0 0 0 0 0 0 0 0 0 0 0 0 0 0 0 0 0 0 0 0 0 0 0 0 0 0 0 0 0 0 0 0 0 0 0 0 0 1 11 16 15 16 21 26 33 33 35 46 46 47 57 61 69 69 74 83 88 96 108 121 140 136 143 150 150 170 166 177 177 182 182 182 181 179 180 180 180 179 179 179 179 179 178 178 179 179 183 189 189 189 188 187 186 185 182 183 183 183 180 178 182 181 180 179 175 173 173 172 171 171 171 171 165 168 170 169 162 162 166 166 169 167 167 173 172 172 172 171 164 162 167 167 167 166 162 158 157 158 158 155 153 152 155 159 161 162 165 165 163 164 164 168 174 176 177 178 179 181 181 179 173 170 178 178 175 177 175 169 166 166 168 163 166 165 166 169 169 165 162 160 163 163 167 175 170 164 162 159 159 160 161 164 165 167 170 171 175 175 176 176 174 170 168 166 169 172 172 164 172 173 166 177 178 177 175 175 170 172 175 176 178 177 176 175 175 171 177 174 176 182 184 185 185 184 186 186 188 189 189 191 192 190 190 192 194 195 194 194 193 192 191 190 190 190 191 180 181 175 176 172 154 151 140 145 145 137 122 114 114 104 105 90 84 85 80 80 73 58 48 46 32 22 27 11 11 6 6 6 6 6 6 6 5 0 0 0 0 0 0 0 0 0 0 0 0 0 0 0 0 0 0 0 0 0 0 0 0 0 0 0 0 0 0 0 0 0 0 0 0 0 0 0 0 0 0 0 0 0 0 0 0 0 0 0 0 0
0 0 0 0 0 0 0 0 0 0 0 0 0 0 0 0 0 0 0 0 0 0 0 0 0 0 0 0 0 0 0 0 0 0 0 0 0 0 0 0 0 0 0 0 0 0 0 5 11 15 15 16 22 27 34 36 35 46 46 46 57 61 69 68 73 83 88 94 107 117 135 140 142 150 150 157 171 171 176 180 181 180 180 179 174 179 179 179 174 177 177 179 179 181 179 180 184 189 189 187 184 184 184 183 182 182 182 180 182 181 175 179 178 175 173 173 173 171 170 169 168 158 169 170 170 169 162 167 167 170 171 167 172 172 168 169 172 164 163 168 167 167 165 162 159 158 159 159 157 153 152 156 160 162 164 166 166 164 165 166 169 174 176 176 179 180 181 181 179 174 173 176 178 174 177 176 167 163 167 168 161 164 160 168 169 165 163 164 163 163 165 170 172 166 162 162 158 162 162 164 165 166 169 171 174 174 176 170 174 169 166 161 168 172 172 170 170 172 173 171 177 177 176 175 173 174 174 172 178 178 178 176 175 174 171 177 178 174 176 182 183 178 179 185 186 187 187 187 190 191 190 190 191 194 194 194 195 194 193 192 189 190 190 180 179 170 177 160 154 149 142 142 145 133 122 113 113 104 104 89 83 83 83 79 73 57 50 46 31 22 21 11 11 6 6 6 6 6 6 6 6 0 0 0 0 0 0 0 0 0 0 0 0 0 0 0 0 0 0 0 0 0 0 0 0 0 0 0 0 0 0 0 0 0 0 0 0 0 0 0 0 0 0 0 0 0 0 0 0 0 0 0 0 0 0
0 0 0 0 0 0 0 0 0 0 0 0 0 0 0 0 0 0 0 0 0 0 0 0 0 0 0 0 0 0 0 0 0 0 0 0 0 0 0 0 0 0 0 0 0 0 0 5 5 5 13 16 16 22 27 33 36 36 46 46 46 56 61 68 68 73 78 92 92 114 121 135 140 140 149 149 149 169 170 169 178 178 178 178 178 178 179 171 177 178 178 178 180 179 180 177 179 184 177 183 183 183 183 183 183 182 182 182 177 180 179 177 178 175 174 174 173 170 168 168 168 163 169 164 165 171 157 166 167 169 171 167 172 172 172 171 172 165 164 167 166 167 165 163 160 159 160 159 158 155 154 156 161 164 165 167 164 166 166 168 168 173 178 177 179 180 181 179 178 174 174 179 174 173 175 174 165 166 168 165 161 166 168 169 166 167 165 164 165 170 175 168 166 164 163 158 159 162 164 164 166 169 170 174 174 174 173 174 165 166 167 168 172 172 171 165 170 163 170 176 171 176 176 174 174 170 175 176 176 177 178 176 175 175 170 176 178 180 175 176 182 184 183 185 187 187 187 187 187 187 185 190 186 193 194 194 194 193 193 192 192 192 179 180 176 176 160 154 142 141 141 142 135 120 110 112 107 103 85 82 77 83 74 68 57 53 46 31 22 21 11 11 12 6 6 6 6 6 6 6 5 0 0 0 0 0 0 0 0 0 0 0 0 0 0 0 0 0 0 0 0 0 0 0 0 0 0 0 0 0 0 0 0 0 0 0 0 0 0 0 0 0 0 0 0 0 0 0 0 0 0 0 0 0 0
0 0 0 0 0 0 0 0 0 0 0 0 0 0 0 0 0 0 0 0 0 0 0 0 0 0 0 0 0 0 0 0 0 0 0 0 0 0 0 0 0 0 0 0 0 0 0 5 5 5 5 13 16 16 27 28 33 34 47 47 46 46 56 60 63 68 73 78 92 94 113 121 134 140 143 148 148 147 164 167 172 168 177 177 178 178 176 178 178 179 180 179 179 180 181 175 181 180 178 178 183 182 182 182 182 182 183 182 181 179 178 178 178 170 170 172 171 171 164 165 167 163 168 169 169 171 163 166 163 169 170 166 172 172 171 172 171 166 164 167 166 158 165 163 162 156 160 160 158 156 156 153 162 165 167 169 168 168 167 169 169 173 178 177 179 180 180 180 179 174 174 178 177 168 174 171 165 165 166 166 162 167 169 168 168 167 165 166 169 171 170 161 168 163 157 160 163 163 164 165 167 168 174 173 173 171 172 168 165 166 168 171 171 171 171 170 166 173 174 175 176 175 175 175 176 176 174 170 174 175 175 176 175 176 172 176 178 179 180 175 177 184 179 185 186 187 184 186 186 182 190 190 191 193 193 194 194 194 194 194 193 182 182 176 176 159 154 142 141 140 139 134 119 108 110 105 101 85 86 83 82 78 68 62 47 46 31 21 21 11 11 11 6 6 6 6 6 6 6 5 0 0 0 0 0 0 0 0 0 0 0 0 0 0 0 0 0 0 0 0 0 0 0 0 0 0 0 0 0 0 0 0 0 0 0 0 0 0 0 0 0 0 0 0 0 0 0 0 0 0 0 0 0 0 0
0 0 0 0 0 0 0 0 0 0 0 0 0 0 0 0 0 0 0 0 0 0 0 0 0 0 0 0 0 0 0 0 0 0 0 0 0 0 0 0 0 0 0 0 0 0 0 0 5 5 5 5 14 16 16 27 28 36 37 47 47 47 47 56 60 62 68 67 77 89 98 119 120 135 139 142 146 145 145 158 160 166 172 172 178 176 177 178 180 179 179 179 180 180 179 175 179 179 178 179 178 181 182 181 181 181 182 181 180 171 179 178 171 174 172 172 172 172 161 167 166 164 168 170 171 165 165 161 165 168 160 165 167 170 171 167 171 165 165 167 166 166 165 164 162 161 160 159 159 158 157 158 162 166 169 170 169 169 169 170 170 168 177 175 177 179 174 178 179 174 174 177 175 171 168 172 165 162 167 168 163 173 169 168 168 167 163 169 169 168 170 163 161 156 156 162 162 163 164 166 167 168 173 172 172 169 161 164 167 167 169 170 170 170 171 171 171 167 173 174 174 174 174 176 176 173 174 175 170 171 175 176 177 177 173 176 176 177 180 181 177 178 179 185 186 183 188 187 187 188 189 190 190 191 192 193 194 194 195 188 183 182 177 165 159 154 142 142 141 140 134 123 108 108 103 99 85 85 82 82 77 68 64 46 44 36 21 21 11 11 11 6 6 6 6 6 6 6 5 0 0 0 0 0 0 0 0 0 0 0 0 0 0 0 0 0 0 0 0 0 0 0 0 0 0 0 0 0 0 0 0 0 0 0 0 0 0 0 0 0 0 0 0 0 0 0 0 0 0 0 0 0 0 0 0
0 0 0 0 0 0 0 0 0 0 0 0 0 0 0 0 0 0 0 0 0 0 0 0 0 0 0 0 0 0 0 0 0 0 0 0 0 0 0 0 0 0 0 0 0 0 0 0 3 4 4 4 4 14 15 15 26 26 38 41 47 47 47 47 50 60 58 68 72 77 89 103 119 118 133 137 141 145 143 144 150 164 166 166 176 171 178 178 180 180 178 179 180 180 180 175 172 180 179 179 178 177 177 176 181 181 181 179 179 178 179 177 176 174 173 173 172 173 170 168 162 161 170 166 172 171 165 168 161 167 169 163 169 169 169 169 169 162 163 165 165 164 164 162 161 159 158 158 159 157 157 159 158 165 169 171 170 169 168 169 170 171 174 174 175 177 178 169 179 174 175 177 174 169 169 173 165 159 164 172 167 170 170 170 163 166 167 168 171 174 170 161 156 157 160 161 163 164 164 166 167 172 172 173 169 165 162 166 167 169 170 170 171 167 172 170 171 171 172 167 175 175 174 176 176 173 174 170 174 174 169 173 173 177 173 176 176 178 179 180 181 178 179 181 186 187 188 187 187 187 189 191 191 191 191 193 193 194 183 184 176 176 166 160 155 143 142 140 136 133 123 109 108 102 92 87 83 84 82 77 72 64 46 41 35 21 21 11 11 11 6 6 6 6 6 6 6 6 0 0 0 0 0 0 0 0 0 0 0 0 0 0 0 0 0 0 0 0 0 0 0 0 0 0 0 0 0 0 0 0 0 0 0 0 0 0 0 0 0 0 0 0 0 0 0 0 0 0 0 0 0 0 0 0 0
0 0 0 0 0 0 0 0 0 0 0 0 0 0 0 0 0 0 0 0 0 0 0 0 0 0 0 0 0 0 0 0 0 0 0 0 0 0 0 0 0 0 0 0 0 0 0 0 0 4 4 4 4 4 14 15 20 26 26 38 40 46 46 46 46 47 56 57 67 72 76 92 108 118 117 126 135 140 144 144 140 145 163 166 166 173 177 173 180 179 180 180 180 180 180 175 177 180 180 179 177 177 176 176 179 180 179 179 178 172 174 177 177 175 175 175 175 173 171 169 168 164 171 172 173 172 166 165 155 166 167 163 169 168 168 169 168 161 162 165 165 165 165 163 161 160 160 159 159 158 157 159 162 165 168 170 170 170 168 169 169 169 173 172 175 177 178 179 179 173 173 176 172 171 174 173 163 165 170 170 166 169 171 169 166 167 167 172 175 174 167 155 160 161 161 153 164 164 166 170 171 172 171 168 164 162 165 166 168 169 169 171 172 171 169 169 166 171 174 172 168 175 176 175 175 174 174 175 174 175 175 174 173 173 172 177 177 177 179 179 181 182 175 179 186 187 187 182 182 187 188 191 191 186 191 192 193 188 183 177 167 166 161 157 145 144 142 135 136 124 115 110 103 92 85 82 82 79 69 70 64 46 41 35 20 21 11 11 11 11 6 6 6 6 6 6 6 5 0 0 0 0 0 0 0 0 0 0 0 0 0 0 0 0 0 0 0 0 0 0 0 0 0 0 0 0 0 0 0 0 0 0 0 0 0 0 0 0 0 0 0 0 0 0 0 0 0 0 0 0 0 0 0 0 0
0 0 0 0 0 0 0 0 0 0 0 0 0 0 0 0 0 0 0 0 0 0 0 0 0 0 0 0 0 0 0 0 0 0 0 0 0 0 0 0 0 0 0 0 0 0 0 0 0 0 4 4 4 4 4 15 15 20 20 33 40 39 45 46 46 46 46 56 57 65 71 73 95 104 116 116 120 129 139 139 144 144 144 160 165 167 173 178 179 181 181 181 180 180 180 174 178 178 181 178 178 177 176 176 176 175 179 178 177 177 176 178 177 176 176 174 176 174 171 170 170 165 173 173 174 171 164 168 163 166 162 163 169 168 167 168 163 159 160 163 163 165 166 164 163 161 160 160 156 160 158 160 163 166 168 170 169 169 169 170 170 170 172 173 175 177 177 178 179 171 172 175 174 169 176 173 165 165 169 171 166 170 170 170 169 174 170 174 176 167 160 157 162 161 160 162 163 163 163 170 171 165 168 165 162 163 165 167 169 170 165 171 171 164 164 169 167 173 173 172 173 176 175 175 174 173 170 174 173 169 174 174 174 174 172 177 177 177 178 176 180 181 183 178 175 186 188 187 188 188 189 191 191 190 191 192 187 183 177 177 162 159 152 146 145 143 135 137 130 116 112 104 93 87 86 81 82 67 68 68 45 50 35 20 21 11 11 11 11 6 6 6 6 6 6 6 5 0 0 0 0 0 0 0 0 0 0 0 0 0 0 0 0 0 0 0 0 0 0 0 0 0 0 0 0 0 0 0 0 0 0 0 0 0 0 0 0 0 0 0 0 0 0 0 0 0 0 0 0 0 0 0 0 0 0
0 0 0 0 0 0 0 0 0 0 0 0 0 0 0 0 0 0 0 0 0 0 0 0 0 0 0 0 0 0 0 0 0 0 0 0 0 0 0 0 0 0 0 0 0 0 0 0 0 0 0 4 4 4 4 7 15 15 20 20 32 40 39 45 40 46 46 46 55 56 60 73 75 86 107 115 115 124 130 140 139 146 146 145 151 162 167 168 180 179 180 180 180 180 173 174 179 179 181 178 178 177 175 175 175 175 174 173 176 176 176 175 177 177 175 174 176 175 174 174 167 167 165 172 171 172 165 164 167 157 165 159 165 164 165 166 166 159 160 160 165 165 167 166 163 161 157 158 155 158 157 160 161 164 166 168 168 169 171 170 170 170 170 171 175 178 177 176 177 171 172 175 174 175 176 173 166 164 168 169 165 170 171 174 174 171 173 175 170 160 159 158 162 160 161 162 157 162 167 168 170 169 167 162 163 163 165 168 169 170 165 164 168 168 168 164 172 174 169 173 174 174 175 174 173 174 174 174 173 174 176 177 175 175 168 178 178 178 177 179 177 179 182 183 179 181 187 187 187 188 189 191 192 191 191 185 176 177 178 173 161 148 151 144 143 136 135 132 117 113 101 94 89 85 82 81 67 67 67 44 48 35 20 15 11 11 11 11 6 6 6 6 6 6 6 5 0 0 0 0 0 0 0 0 0 0 0 0 0 0 0 0 0 0 0 0 0 0 0 0 0 0 0 0 0 0 0 0 0 0 0 0 0 0 0 0 0 0 0 0 0 0 0 0 0 0 0 0 0 0 0 0 0 0 0
0 0 0 0 0 0 0 0 0 0 0 0 0 0 0 0 0 0 0 0 0 0 0 0 0 0 0 0 0 0 0 0 0 0 0 0 0 0 0 0 0 0 0 0 0 0 0 0 0 0 0 4 4 4 4 4 7 15 20 20 26 35 40 39 46 46 46 46 46 54 54 59 71 76 95 109 115 120 120 131 141 141 146 146 146 151 162 169 175 175 179 179 179 178 177 173 177 177 176 181 179 176 175 170 175 175 174 173 176 176 175 178 177 176 175 174 176 175 177 176 161 167 171 173 173 174 166 170 168 168 166 160 164 164 165 166 163 159 161 164 165 166 164 166 162 160 158 158 156 158 158 160 161 163 167 168 170 171 170 170 171 171 171 172 174 175 173 177 177 168 172 177 176 172 175 173 166 164 169 168 167 173 174 173 172 173 177 172 159 160 162 158 160 157 162 163 167 173 173 170 169 167 161 159 162 165 167 170 170 171 164 165 166 167 169 169 171 174 174 173 174 174 173 173 173 175 175 173 175 177 178 178 176 172 173 178 178 178 178 179 177 178 182 182 185 176 182 188 186 186 189 186 192 185 185 180 175 176 177 167 146 151 145 144 134 134 132 122 112 98 97 90 88 87 83 72 67 67 48 48 35 20 15 11 11 11 11 12 6 6 6 6 6 6 6 0 0 0 0 0 0 0 0 0 0 0 0 0 0 0 0 0 0 0 0 0 0 0 0 0 0 0 0 0 0 0 0 0 0 0 0 0 0 0 0 0 0 0 0 0 0 0 0 0 0 0 0 0 0 0 0 0 0 0 0
0 0 0 0 0 0 0 0 0 0 0 0 0 0 0 0 0 0 0 0 0 0 0 0 0 0 0 0 0 0 0 0 0 0 0 0 0 0 0 0 0 0 0 0 0 0 0 0 0 0 0 0 4 4 4 4 4 8 15 19 20 26 35 40 39 45 45 44 45 45 52 53 56 67 81 95 109 114 125 126 133 142 141 145 146 147 152 164 175 176 175 179 178 177 177 172 177 176 176 180 180 178 176 175 174 174 174 172 171 175 176 178 172 175 176 177 177 172 177 175 173 168 166 173 173 173 168 171 169 169 162 160 164 164 165 166 163 156 161 166 167 167 165 165 163 162 160 158 157 160 160 160 161 163 167 170 165 171 170 171 171 171 174 171 173 174 173 173 173 169 171 176 174 172 175 174 165 161 167 169 169 173 172 170 170 175 173 167 160 163 163 158 163 164 165 167 169 173 171 170 168 162 162 161 163 166 168 171 171 169 162 165 166 167 169 168 171 174 170 174 174 175 173 173 174 174 174 176 172 178 174 179 178 177 173 178 179 178 178 178 177 179 181 182 178 185 183 183 186 182 187 191 191 186 180 175 169 175 176 146 150 144 138 136 133 130 122 112 98 98 91 90 88 79 73 68 62 52 48 32 25 15 11 11 11 11 11 6 6 6 6 6 6 6 5 0 0 0 0 0 0 0 0 0 0 0 0 0 0 0 0 0 0 0 0 0 0 0 0 0 0 0 0 0 0 0 0 0 0 0 0 0 0 0 0 0 0 0 0 0 0 0 0 0 0 0 0 0 0 0 0 0 0 0 0
0 0 0 0 0 0 0 0 0 0 0 0 0 0 0 0 0 0 0 0 0 0 0 0 0 0 0 0 0 0 0 0 0 0 0 0 0 0 0 0 0 0 0 0 0 0 0 0 0 0 0 0 0 4 4 4 4 4 9 15 20 25 30 35 40 39 45 45 43 43 43 52 52 56 66 90 96 109 122 126 127 128 141 141 146 148 148 148 155 170 176 170 172 177 176 172 176 176 177 176 179 178 176 175 169 174 173 172 170 175 176 177 177 175 171 178 178 177 178 176 174 169 171 171 174 174 168 173 170 169 167 159 164 165 166 167 164 156 162 161 165 165 166 165 164 164 161 160 158 160 161 160 161 163 168 171 171 171 171 171 171 171 172 171 173 173 172 169 175 169 171 175 174 172 175 173 164 165 168 171 169 172 170 170 174 172 169 163 163 164 162 161 165 167 169 173 172 170 170 167 164 161 161 164 167 167 171 170 169 162 156 165 166 163 167 169 171 169 170 176 176 176 176 175 175 175 171 177 178 178 178 175 178 178 173 179 180 178 178 177 177 180 179 182 184 185 182 184 184 186 189 190 191 174 160 173 174 174 152 146 149 137 136 133 128 121 110 101 97 92 90 90 83 74 74 63 53 48 31 25 15 10 11 11 11 11 6 6 6 6 6 6 6 5 0 0 0 0 0 0 0 0 0 0 0 0 0 0 0 0 0 0 0 0 0 0 0 0 0 0 0 0 0 0 0 0 0 0 0 0 0 0 0 0 0 0 0 0 0 0 0 0 0 0 0 0 0 0 0 0 0 0 0 0 0
0 0 0 0 0 0 0 0 0 0 0 0 0 0 0 0 0 0 0 0 0 0 0 0 0 0 0 0 0 0 0 0 0 0 0 0 0 0 0 0 0 0 0 0 0 0 0 0 0 0 0 0 0 0 4 4 4 4 4 9 19 20 25 30 35 39 37 43 44 42 42 42 51 51 56 70 95 98 111 126 127 127 127 140 143 146 147 147 149 164 176 175 173 173 176 172 176 177 177 176 179 178 177 174 174 174 173 171 170 174 177 177 171 171 176 179 177 177 178 177 173 167 172 171 172 169 167 172 171 169 168 161 165 165 165 167 164 159 158 160 162 163 162 163 163 163 161 160 154 159 160 160 161 163 167 170 171 171 170 170 170 169 170 170 171 172 171 174 175 168 171 175 174 161 173 171 165 165 168 170 165 170 169 168 171 168 164 164 166 162 164 163 168 170 174 171 169 170 164 163 160 160 157 164 166 168 169 163 167 161 163 166 165 167 168 168 171 174 173 175 177 177 176 176 178 176 167 177 177 177 178 179 177 178 173 179 179 178 179 178 177 179 179 181 183 184 187 188 184 180 189 189 172 173 172 169 162 162 150 150 137 131 134 127 120 111 100 96 92 91 90 83 75 74 64 54 53 32 25 20 10 11 11 11 11 6 6 6 6 6 6 6 6 0 0 0 0 0 0 0 0 0 0 0 0 0 0 0 0 0 0 0 0 0 0 0 0 0 0 0 0 0 0 0 0 0 0 0 0 0 0 0 0 0 0 0 0 0 0 0 0 0 0 0 0 0 0 0 0 0 0 0 0 0 0
0 0 0 0 0 0 0 0 0 0 0 0 0 0 0 0 0 0 0 0 0 0 0 0 0 0 0 0 0 0 0 0 0 0 0 0 0 0 0 0 0 0 0 0 0 0 0 0 0 0 0 0 0 0 0 4 4 4 4 4 9 20 25 25 30 34 38 33 43 43 42 42 43 46 50 56 82 98 98 116 127 127 128 128 137 142 146 148 149 149 175 174 168 173 175 172 176 176 176 176 176 177 177 176 175 174 172 170 169 175 177 177 176 176 179 179 178 178 175 170 170 166 170 168 170 172 167 171 170 169 167 165 163 162 163 162 161 159 158 158 158 159 158 159 158 158 156 156 153 155 156 157 157 159 163 166 167 166 162 165 165 167 166 166 166 166 167 169 171 163 164 170 170 166 164 169 162 161 165 161 160 164 162 162 165 162 152 161 165 165 166 161 169 171 169 167 167 165 163 159 159 161 162 165 167 167 166 165 166 167 158 166 155 165 167 168 171 174 175 176 176 176 178 177 177 177 177 177 177 177 175 172 173 174 168 179 178 177 177 179 177 178 179 179 177 183 185 182 187 182 183 175 170 173 170 165 163 150 149 137 136 135 126 116 104 104 100 91 91 90 79 78 74 69 55 55 34 25 20 10 11 11 11 11 11 6 6 6 6 6 6 6 0 0 0 0 0 0 0 0 0 0 0 0 0 0 0 0 0 0 0 0 0 0 0 0 0 0 0 0 0 0 0 0 0 0 0 0 0 0 0 0 0 0 0 0 0 0 0 0 0 0 0 0 0 0 0 0 0 0 0 0 0 0 0
0 0 0 0 0 0 0 0 0 0 0 0 0 0 0 0 0 0 0 0 0 0 0 0 0 0 0 0 0 0 0 0 0 0 0 0 0 0 0 0 0 0 0 0 0 0 0 0 0 0 0 0 0 0 0 4 4 4 4 4 4 9 20 25 29 28 33 37 38 42 43 43 42 44 52 51 62 85 97 102 116 127 128 128 128 137 143 145 148 149 148 173 174 173 174 171 177 176 176 176 175 178 177 178 178 176 172 164 168 174 175 175 177 176 175 176 172 172 171 171 169 165 164 168 169 170 167 171 170 170 168 166 166 162 158 160 161 158 159 163 158 165 159 164 162 162 161 159 157 158 159 160 159 161 164 166 168 168 169 162 169 170 169 169 170 170 171 172 172 164 166 172 171 161 167 172 167 162 170 164 168 170 167 166 165 165 168 164 164 164 168 165 169 168 170 170 162 166 162 161 162 164 167 163 167 165 165 164 165 162 163 167 165 165 165 166 169 174 176 175 176 177 176 177 177 177 177 172 176 175 175 176 174 174 169 176 177 172 176 176 173 174 174 179 181 184 185 185 186 178 172 169 168 168 162 161 162 149 143 137 136 128 115 103 103 98 91 92 84 78 77 74 68 55 44 45 25 20 10 10 11 11 11 11 6 6 6 6 6 6 6 5 0 0 0 0 0 0 0 0 0 0 0 0 0 0 0 0 0 0 0 0 0 0 0 0 0 0 0 0 0 0 0 0 0 0 0 0 0 0 0 0 0 0 0 0 0 0 0 0 0 0 0 0 0 0 0 0 0 0 0 0 0 0 0
0 0 0 0 0 0 0 0 0 0 0 0 0 0 0 0 0 0 0 0 0 0 0 0 0 0 0 0 0 0 0 0 0 0 0 0 0 0 0 0 0 0 0 0 0 0 0 0 0 0 0 0 0 0 0 0 4 4 4 4 4 4 9 25 25 29 27 27 36 38 42 43 43 44 46 52 52 58 87 98 106 121 128 128 128 128 137 142 144 147 148 168 168 172 172 166 175 175 175 175 174 177 177 178 178 174 171 168 168 170 175 173 174 175 174 173 173 172 172 171 169 164 168 168 169 164 160 171 170 170 163 166 165 164 163 164 160 149 161 163 164 165 166 162 165 163 163 160 159 159 157 157 156 159 161 165 167 168 169 170 170 170 170 169 169 170 171 172 169 163 169 170 165 168 168 172 167 165 165 170 169 171 168 167 163 166 163 163 165 165 166 158 168 169 170 168 168 164 162 164 165 157 165 165 165 165 166 159 168 168 163 164 162 156 163 163 169 172 175 176 176 176 176 176 175 177 177 177 176 175 174 175 172 174 171 176 177 176 174 175 173 176 176 176 178 181 185 185 183 177 170 163 168 161 159 160 139 147 136 135 129 111 101 103 99 93 89 89 77 77 77 68 59 50 44 25 25 10 10 11 11 11 11 6 6 6 6 6 6 6 5 0 0 0 0 0 0 0 0 0 0 0 0 0 0 0 0 0 0 0 0 0 0 0 0 0 0 0 0 0 0 0 0 0 0 0 0 0 0 0 0 0 0 0 0 0 0 0 0 0 0 0 0 0 0 0 0 0 0 0 0 0 0 0 0
0 0 0 0 0 0 0 0 0 0 0 0 0 0 0 0 0 0 0 0 0 0 0 0 0 0 0 0 0 0 0 0 0 0 0 0 0 0 0 0 0 0 0 0 0 0 0 0 0 0 0 0 0 0 0 0 0 4 4 4 4 4 9 14 24 28 27 26 26 35 38 42 45 45 45 51 52 57 67 92 102 115 121 128 128 128 128 131 142 144 146 152 167 171 171 171 175 174 173 174 174 174 173 177 177 173 170 163 168 169 175 174 173 173 174 169 168 167 167 166 165 159 162 160 161 161 157 162 156 162 161 161 159 159 158 157 154 153 153 156 156 159 159 160 158 157 155 150 150 152 153 153 158 160 161 164 168 169 170 171 171 170 169 169 170 170 170 173 169 163 162 162 170 168 168 172 165 166 170 165 167 173 168 168 169 167 162 167 166 165 166 162 168 170 170 168 164 160 164 165 166 165 164 164 164 163 163 167 168 168 161 165 164 163 163 163 166 170 174 175 175 173 175 176 175 176 176 178 175 175 174 175 169 175 172 177 177 176 170 175 174 175 176 176 177 180 184 183 181 177 169 169 157 156 157 150 142 130 134 129 105 100 103 103 93 88 89 77 77 76 72 64 49 44 29 25 10 10 10 11 11 11 11 6 6 6 6 6 6 6 0 0 0 0 0 0 0 0 0 0 0 0 0 0 0 0 0 0 0 0 0 0 0 0 0 0 0 0 0 0 0 0 0 0 0 0 0 0 0 0 0 0 0 0 0 0 0 0 0 0 0 0 0 0 0 0 0 0 0 0 0 0 0 0 0
0 0 0 0 0 0 0 0 0 0 0 0 0 0 0 0 0 0 0 0 0 0 0 0 0 0 0 0 0 0 0 0 0 0 0 0 0 0 0 0 0 0 0 0 0 0 0 0 0 0 0 0 0 0 0 0 0 0 4 4 4 4 4 9 19 22 27 26 26 26 36 39 43 46 46 46 51 51 57 72 91 104 119 121 128 128 127 127 125 141 142 152 156 171 171 170 175 174 169 173 169 173 172 177 176 173 171 169 170 165 174 172 172 175 174 173 173 172 172 165 169 158 163 164 165 164 164 163 164 166 164 163 161 159 157 157 154 159 154 158 158 162 161 162 160 159 157 155 153 155 156 158 157 158 160 162 166 167 161 172 172 172 172 172 173 173 172 174 170 162 160 166 169 167 165 171 166 165 164 163 163 175 173 168 166 167 169 162 165 164 156 162 169 168 167 165 163 164 162 164 163 163 163 163 160 162 164 162 166 167 161 167 166 166 166 160 161 170 171 173 172 173 172 171 172 174 177 178 175 175 175 176 176 175 172 177 177 171 176 175 177 176 177 176 178 180 176 177 171 171 168 161 159 147 148 137 143 133 127 111 104 100 104 94 88 88 83 77 70 71 63 53 49 28 24 9 10 10 11 11 11 11 6 6 6 6 6 6 6 0 0 0 0 0 0 0 0 0 0 0 0 0 0 0 0 0 0 0 0 0 0 0 0 0 0 0 0 0 0 0 0 0 0 0 0 0 0 0 0 0 0 0 0 0 0 0 0 0 0 0 0 0 0 0 0 0 0 0 0 0 0 0 0 0 0
0 0 0 0 0 0 0 0 0 0 0 0 0 0 0 0 0 0 0 0 0 0 0 0 0 0 0 0 0 0 0 0 0 0 0 0 0 0 0 0 0 0 0 0 0 0 0 0 0 0 0 0 0 0 0 0 0 0 4 4 4 4 4 4 14 18 25 26 26 26 26 37 45 45 47 47 51 50 51 66 71 95 108 120 120 127 127 127 126 130 135 144 152 166 170 166 174 175 174 172 173 171 172 178 176 174 171 166 169 169 163 170 171 175 174 173 174 174 173 166 164 159 163 162 163 163 162 161 161 159 159 159 160 158 155 156 153 159 156 158 160 161 160 156 154 153 154 154 153 157 159 159 160 158 160 163 167 169 170 172 171 171 172 171 171 166 171 171 168 156 165 168 172 169 168 172 166 164 168 172 173 170 170 169 168 165 165 162 161 165 161 164 168 167 166 164 166 166 160 163 164 163 162 160 160 161 162 161 168 163 164 168 168 165 166 164 164 168 171 174 173 173 172 172 173 174 176 176 174 175 175 177 178 176 172 177 177 177 177 177 176 177 173 172 178 179 175 179 175 169 165 162 157 147 138 140 135 121 116 103 98 103 99 94 88 83 76 71 70 62 58 49 29 25 14 9 10 11 11 11 11 6 6 6 6 6 6 6 0 0 0 0 0 0 0 0 0 0 0 0 0 0 0 0 0 0 0 0 0 0 0 0 0 0 0 0 0 0 0 0 0 0 0 0 0 0 0 0 0 0 0 0 0 0 0 0 0 0 0 0 0 0 0 0 0 0 0 0 0 0 0 0 0 0 0
0 0 0 0 0 0 0 0 0 0 0 0 0 0 0 0 0 0 0 0 0 0 0 0 0 0 0 0 0 0 0 0 0 0 0 0 0 0 0 0 0 0 0 0 0 0 0 0 0 0 0 0 0 0 0 0 0 0 0 4 4 4 4 4 4 19 17 25 25 25 26 27 39 46 47 46 46 50 50 57 71 76 99 113 118 120 125 125 126 125 130 143 148 156 170 166 173 173 174 173 173 166 171 177 176 172 168 168 170 167 166 171 171 174 173 173 174 169 168 167 165 158 161 161 157 160 160 158 157 151 158 157 151 155 155 155 153 158 154 155 156 156 156 154 154 154 157 156 154 158 159 161 161 160 162 164 168 168 170 171 171 171 172 171 172 171 171 172 164 161 167 166 171 171 169 173 165 164 170 162 169 166 164 168 165 165 163 159 158 165 166 162 166 166 166 169 168 165 164 162 161 159 155 161 158 164 164 162 169 170 160 168 169 161 154 164 164 161 170 174 173 174 170 174 174 174 175 176 175 175 175 175 177 171 172 178 177 177 177 177 177 177 179 178 179 178 168 173 173 164 160 160 146 144 130 124 125 115 114 98 100 98 94 88 83 83 71 70 59 58 54 33 28 14 9 10 11 11 11 11 6 6 6 6 6 6 6 5 0 0 0 0 0 0 0 0 0 0 0 0 0 0 0 0 0 0 0 0 0 0 0 0 0 0 0 0 0 0 0 0 0 0 0 0 0 0 0 0 0 0 0 0 0 0 0 0 0 0 0 0 0 0 0 0 0 0 0 0 0 0 0 0 0 0 0
0 0 0 0 0 0 0 0 0 0 0 0 0 0 0 0 0 0 0 0 0 0 0 0 0 0 0 0 0 0 0 0 0 0 0 0 0 0 0 0 0 0 0 0 0 0 0 0 0 0 0 0 0 0 0 0 0 0 0 0 4 4 4 4 4 4 16 16 24 25 26 26 28 39 47 47 46 45 50 50 57 71 84 107 113 119 119 125 125 125 125 134 139 149 154 166 174 174 173 171 172 171 170 170 173 170 164 164 167 168 167 172 167 172 173 169 168 169 169 167 164 163 163 159 154 149 157 158 152 156 155 151 152 153 154 154 148 158 153 151 155 155 155 156 156 157 157 158 156 161 161 164 163 163 164 162 166 167 169 170 170 171 166 167 172 172 173 168 169 163 169 174 174 171 167 171 168 166 170 167 163 170 169 159 163 161 160 159 162 164 165 158 163 167 167 162 165 164 161 159 158 158 160 162 161 162 165 162 170 170 164 170 169 171 160 164 165 166 165 171 171 169 172 172 174 173 175 176 176 176 170 175 176 174 167 177 178 178 178 177 175 178 179 178 179 172 174 172 172 164 157 152 141 140 135 128 123 115 102 93 98 97 92 83 83 71 70 59 61 51 38 29 19 9 9 10 11 11 11 11 6 6 6 6 6 6 6 0 0 0 0 0 0 0 0 0 0 0 0 0 0 0 0 0 0 0 0 0 0 0 0 0 0 0 0 0 0 0 0 0 0 0 0 0 0 0 0 0 0 0 0 0 0 0 0 0 0 0 0 0 0 0 0 0 0 0 0 0 0 0 0 0 0 0 0
0 0 0 0 0 0 0 0 0 0 0 0 0 0 0 0 0 0 0 0 0 0 0 0 0 0 0 0 0 0 0 0 0 0 0 0 0 0 0 0 0 0 0 0 0 0 0 0 0 0 0 0 0 0 0 0 0 0 0 0 0 4 4 4 4 4 14 15 19 25 25 26 28 28 39 47 46 46 51 50 56 65 71 88 112 112 118 119 124 125 124 125 138 143 154 165 170 173 172 166 170 170 164 165 164 166 166 165 167 168 168 169 175 170 170 170 168 165 166 167 165 156 156 155 156 156 158 152 151 152 152 148 149 151 152 152 146 153 150 153 154 152 157 157 157 157 159 160 156 160 162 163 163 163 163 164 167 168 170 170 173 173 173 172 168 171 166 170 169 163 171 173 170 165 168 169 168 161 167 165 166 169 168 163 157 160 161 162 159 164 163 160 164 165 165 166 165 158 158 151 157 158 160 161 149 164 166 165 170 171 165 170 170 171 166 164 165 166 169 171 171 170 171 171 173 173 170 176 171 176 170 171 177 176 172 178 177 173 178 177 177 179 178 179 179 167 170 171 156 157 155 141 138 135 125 129 117 108 100 96 97 92 82 82 77 70 53 57 57 42 33 22 10 9 10 11 11 11 11 6 6 6 6 6 6 6 0 0 0 0 0 0 0 0 0 0 0 0 0 0 0 0 0 0 0 0 0 0 0 0 0 0 0 0 0 0 0 0 0 0 0 0 0 0 0 0 0 0 0 0 0 0 0 0 0 0 0 0 0 0 0 0 0 0 0 0 0 0 0 0 0 0 0 0 0
0 0 0 0 0 0 0 0 0 0 0 0 0 0 0 0 0 0 0 0 0 0 0 0 0 0 0 0 0 0 0 0 0 0 0 0 0 0 0 0 0 0 0 0 0 0 0 0 0 0 0 0 0 0 0 0 0 0 0 0 0 0 4 4 4 4 4 14 16 20 23 25 27 28 30 38 46 46 45 50 50 55 70 84 98 112 112 122 118 123 123 125 130 137 143 155 165 173 172 170 161 164 163 161 167 166 160 160 168 167 163 166 172 171 170 172 166 161 160 158 157 157 158 155 157 159 153 155 151 148 148 139 142 147 148 149 144 149 148 153 154 156 157 157 157 158 159 159 156 161 162 163 164 163 161 162 164 167 168 165 172 173 172 174 175 170 175 175 176 169 170 175 176 167 167 173 167 161 170 168 166 165 168 163 160 155 158 159 159 157 162 161 165 165 164 163 160 160 157 155 157 158 158 161 162 163 160 163 171 171 166 169 170 169 166 163 165 165 167 169 171 171 172 174 172 173 174 169 173 175 175 176 178 177 168 178 177 178 178 176 178 178 177 179 177 172 170 170 155 157 149 145 141 128 126 124 111 99 93 96 91 86 81 75 70 58 57 59 45 33 23 10 9 10 10 11 11 11 6 6 6 6 6 6 6 0 0 0 0 0 0 0 0 0 0 0 0 0 0 0 0 0 0 0 0 0 0 0 0 0 0 0 0 0 0 0 0 0 0 0 0 0 0 0 0 0 0 0 0 0 0 0 0 0 0 0 0 0 0 0 0 0 0 0 0 0 0 0 0 0 0 0 0 0 0
0 0 0 0 0 0 0 0 0 0 0 0 0 0 0 0 0 0 0 0 0 0 0 0 0 0 0 0 0 0 0 0 0 0 0 0 0 0 0 0 0 0 0 0 0 0 0 0 0 0 0 0 0 0 0 0 0 0 0 0 0 0 4 4 4 4 4 9 14 20 19 22 25 29 29 30 31 45 45 50 49 55 60 70 89 102 111 116 117 116 123 124 124 133 148 144 159 172 167 166 164 164 163 160 160 166 164 160 166 164 164 166 173 171 168 169 164 163 162 161 159 160 159 158 160 152 148 149 140 131 145 146 141 143 143 145 140 147 143 148 154 154 155 155 156 157 157 158 155 160 162 162 163 163 161 163 164 165 168 170 171 172 172 173 168 172 172 175 178 170 175 177 178 177 169 174 173 167 171 170 163 172 164 164 158 161 155 157 158 161 163 160 164 165 164 161 159 157 154 156 158 154 161 164 165 165 166 165 166 167 157 170 170 165 166 165 166 164 166 170 171 171 173 175 173 172 172 172 173 173 174 177 178 178 168 178 178 178 178 177 179 178 179 179 168 158 169 153 155 151 144 141 129 125 127 117 105 98 95 92 86 81 74 69 59 58 56 50 41 30 13 9 9 10 11 11 11 11 6 6 6 6 6 6 5 0 0 0 0 0 0 0 0 0 0 0 0 0 0 0 0 0 0 0 0 0 0 0 0 0 0 0 0 0 0 0 0 0 0 0 0 0 0 0 0 0 0 0 0 0 0 0 0 0 0 0 0 0 0 0 0 0 0 0 0 0 0 0 0 0 0 0 0 0 0
0 0 0 0 0 0 0 0 0 0 0 0 0 0 0 0 0 0 0 0 0 0 0 0 0 0 0 0 0 0 0 0 0 0 0 0 0 0 0 0 0 0 0 0 0 0 0 0 0 0 0 0 0 0 0 0 0 0 0 0 0 0 0 4 4 4 4 4 14 19 20 20 23 26 29 30 29 29 43 39 49 49 55 65 78 98 102 101 117 121 117 123 124 129 137 146 151 165 168 166 165 164 164 160 157 165 158 164 166 166 166 169 172 168 167 167 163 165 164 164 162 162 158 157 145 150 138 145 143 137 141 142 143 140 141 143 137 143 136 142 143 144 146 146 147 150 151 151 148 154 155 155 152 156 156 157 152 160 162 164 166 169 169 163 168 163 168 170 172 168 173 172 170 170 160 163 169 163 165 164 161 166 162 162 159 155 151 142 151 150 155 154 158 159 158 157 155 154 154 155 157 160 164 165 164 167 169 166 171 171 162 169 169 169 167 165 166 167 164 171 171 165 162 174 171 166 172 171 171 171 174 176 178 179 174 179 178 179 177 179 175 171 178 176 169 168 163 154 155 148 141 145 128 125 126 105 103 96 94 87 75 74 70 60 58 57 54 45 29 18 9 9 10 10 11 11 11 6 6 6 6 6 6 6 0 0 0 0 0 0 0 0 0 0 0 0 0 0 0 0 0 0 0 0 0 0 0 0 0 0 0 0 0 0 0 0 0 0 0 0 0 0 0 0 0 0 0 0 0 0 0 0 0 0 0 0 0 0 0 0 0 0 0 0 0 0 0 0 0 0 0 0 0 0 0
0 0 0 0 0 0 0 0 0 0 0 0 0 0 0 0 0 0 0 0 0 0 0 0 0 0 0 0 0 0 0 0 0 0 0 0 0 0 0 0 0 0 0 0 0 0 0 0 0 0 0 0 0 0 0 0 0 0 0 0 0 0 0 0 4 4 4 4 4 14 19 20 20 20 29 29 30 29 35 44 44 49 49 59 70 83 101 101 116 121 121 117 123 121 130 137 151 150 164 167 164 164 162 161 157 155 157 166 167 167 161 167 166 169 168 168 168 164 158 164 163 159 157 145 151 147 145 144 143 139 142 142 143 139 138 138 132 140 139 145 147 149 151 146 153 154 153 155 152 157 157 157 157 158 159 161 164 165 167 168 171 173 166 172 173 173 175 171 171 173 176 174 175 176 168 172 167 164 167 167 165 168 168 167 162 158 155 154 153 157 159 157 162 163 162 160 159 160 160 161 163 166 168 170 166 165 168 165 164 167 157 167 163 169 160 167 168 169 167 168 168 167 165 159 165 166 168 162 170 172 173 175 178 179 173 173 179 178 179 181 181 178 177 169 161 162 154 153 153 141 137 137 118 120 116 103 98 94 90 85 75 69 59 60 57 52 45 35 25 9 9 10 10 11 11 11 6 6 6 6 6 6 6 0 0 0 0 0 0 0 0 0 0 0 0 0 0 0 0 0 0 0 0 0 0 0 0 0 0 0 0 0 0 0 0 0 0 0 0 0 0 0 0 0 0 0 0 0 0 0 0 0 0 0 0 0 0 0 0 0 0 0 0 0 0 0 0 0 0 0 0 0 0 0 0
0 0 0 0 0 0 0 0 0 0 0 0 0 0 0 0 0 0 0 0 0 0 0 0 0 0 0 0 0 0 0 0 0 0 0 0 0 0 0 0 0 0 0 0 0 0 0 0 0 0 0 0 0 0 0 0 0 0 0 0 0 0 0 0 0 4 4 4 4 14 14 20 20 20 26 28 29 29 28 34 44 49 48 54 63 77 87 101 116 116 119 119 115 121 125 131 146 155 148 168 165 162 161 160 156 153 162 157 165 162 162 165 164 168 168 167 167 165 162 155 155 151 149 151 149 148 148 141 144 141 141 142 136 138 138 139 132 142 142 147 148 151 150 153 155 155 154 155 152 156 157 157 158 154 162 158 165 165 167 167 170 166 171 172 174 175 176 178 180 172 175 174 177 176 169 171 171 153 165 164 163 170 168 165 161 156 156 155 154 152 158 156 162 162 158 160 160 161 161 162 164 165 167 168 164 164 165 163 165 165 160 165 167 165 159 162 160 166 155 164 165 165 163 163 161 164 163 165 167 169 171 172 177 178 170 178 173 175 181 183 181 179 176 163 162 163 154 153 144 140 145 132 125 124 105 101 96 94 86 74 68 64 59 58 51 53 38 28 13 9 9 10 5 11 11 6 6 6 6 6 6 6 0 0 0 0 0 0 0 0 0 0 0 0 0 0 0 0 0 0 0 0 0 0 0 0 0 0 0 0 0 0 0 0 0 0 0 0 0 0 0 0 0 0 0 0 0 0 0 0 0 0 0 0 0 0 0 0 0 0 0 0 0 0 0 0 0 0 0 0 0 0 0 0 0
0 0 0 0 0 0 0 0 0 0 0 0 0 0 0 0 0 0 0 0 0 0 0 0 0 0 0 0 0 0 0 0 0 0 0 0 0 0 0 0 0 0 0 0 0 0 0 0 0 0 0 0 0 0 0 0 0 0 0 0 0 0 0 0 0 4 4 4 4 4 14 15 20 20 20 27 28 29 28 27 34 44 48 49 54 63 82 96 99 114 119 119 119 115 121 124 135 150 155 153 164 161 160 159 155 155 152 163 164 163 165 167 165 165 164 166 160 160 157 154 151 144 149 151 151 150 150 148 146 142 144 141 141 135 136 136 131 140 140 144 145 145 147 149 151 151 150 151 147 151 153 154 156 157 159 160 160 160 161 161 158 165 166 167 165 171 173 173 173 164 168 171 171 171 166 168 165 158 158 163 165 170 168 164 165 160 158 156 155 158 156 157 164 163 161 160 161 163 157 163 163 164 166 167 164 163 165 162 161 158 157 158 161 160 161 158 157 163 161 161 160 161 161 163 161 161 164 164 167 170 171 173 178 177 172 177 177 171 180 177 180 180 175 155 163 164 153 147 137 145 131 123 125 110 95 98 94 90 79 68 62 59 59 52 51 47 34 16 9 9 9 10 11 11 11 6 6 6 6 6 6 5 0 0 0 0 0 0 0 0 0 0 0 0 0 0 0 0 0 0 0 0 0 0 0 0 0 0 0 0 0 0 0 0 0 0 0 0 0 0 0 0 0 0 0 0 0 0 0 0 0 0 0 0 0 0 0 0 0 0 0 0 0 0 0 0 0 0 0 0 0 0 0 0 0
0 0 0 0 0 0 0 0 0 0 0 0 0 0 0 0 0 0 0 0 0 0 0 0 0 0 0 0 0 0 0 0 0 0 0 0 0 0 0 0 0 0 0 0 0 0 0 0 0 0 0 0 0 0 0 0 0 0 0 0 0 0 0 0 0 0 4 4 4 4 9 15 19 20 19 20 27 28 28 28 28 29 48 49 54 58 76 86 100 114 113 119 120 120 115 121 134 141 149 156 158 159 159 157 156 150 158 162 164 166 169 168 166 162 165 163 156 157 156 151 141 146 149 151 146 150 150 150 148 141 144 144 140 142 142 143 139 147 146 150 150 151 154 155 155 154 154 155 151 157 154 161 162 164 166 166 166 165 165 160 168 170 173 175 177 177 178 177 177 167 175 177 177 176 171 173 168 160 165 156 169 170 166 165 165 161 159 158 158 160 161 155 164 162 161 162 162 162 163 160 164 166 162 164 164 163 165 161 159 161 156 160 159 158 157 156 153 162 156 159 160 159 161 159 155 156 156 165 169 171 173 175 177 172 173 177 172 178 172 182 182 176 164 162 160 155 153 143 134 143 124 124 123 102 100 97 92 75 68 63 63 59 53 52 53 33 19 13 9 9 10 11 11 11 6 6 6 6 6 6 6 0 0 0 0 0 0 0 0 0 0 0 0 0 0 0 0 0 0 0 0 0 0 0 0 0 0 0 0 0 0 0 0 0 0 0 0 0 0 0 0 0 0 0 0 0 0 0 0 0 0 0 0 0 0 0 0 0 0 0 0 0 0 0 0 0 0 0 0 0 0 0 0 0 0
0 0 0 0 0 0 0 0 0 0 0 0 0 0 0 0 0 0 0 0 0 0 0 0 0 0 0 0 0 0 0 0 0 0 0 0 0 0 0 0 0 0 0 0 0 0 0 0 0 0 0 0 0 0 0 0 0 0 0 0 0 0 0 0 0 0 0 4 4 4 4 15 15 19 20 19 25 28 28 28 28 28 31 48 48 53 63 81 100 105 114 118 118 120 120 116 128 134 149 149 154 155 157 157 156 156 158 156 165 166 166 163 162 161 162 160 152 155 147 145 147 146 147 146 150 150 146 147 146 142 147 147 144 145 144 147 140 149 141 149 151 153 154 155 155 155 154 156 153 160 161 163 164 166 168 167 165 166 159 165 169 165 174 171 177 176 178 176 175 168 176 177 177 176 169 171 166 160 163 162 162 169 167 165 165 161 159 159 159 160 163 159 159 162 163 157 162 162 163 165 165 167 168 165 166 163 165 161 161 160 156 161 159 160 159 160 155 158 158 155 155 161 161 159 158 160 162 162 163 171 172 172 174 177 171 176 173 182 183 181 173 176 158 164 165 150 148 135 143 130 123 124 110 101 94 90 81 74 63 61 58 54 52 50 47 29 16 9 9 10 10 11 11 5 6 6 6 6 6 6 0 0 0 0 0 0 0 0 0 0 0 0 0 0 0 0 0 0 0 0 0 0 0 0 0 0 0 0 0 0 0 0 0 0 0 0 0 0 0 0 0 0 0 0 0 0 0 0 0 0 0 0 0 0 0 0 0 0 0 0 0 0 0 0 0 0 0 0 0 0 0 0 0 0 0
0 0 0 0 0 0 0 0 0 0 0 0 0 0 0 0 0 0 0 0 0 0 0 0 0 0 0 0 0 0 0 0 0 0 0 0 0 0 0 0 0 0 0 0 0 0 0 0 0 0 0 0 0 0 0 0 0 0 0 0 0 0 0 0 0 0 0 0 4 4 4 9 15 19 19 20 23 28 28 28 28 28 28 34 47 53 58 77 87 100 115 114 119 119 120 120 119 134 144 149 150 152 153 157 158 157 152 159 160 160 162 158 159 157 160 159 157 155 150 151 147 147 149 149 147 146 147 147 148 145 148 146 146 147 147 148 142 141 147 151 154 153 154 155 154 155 155 152 155 162 163 164 166 166 168 167 166 158 163 165 169 172 174 175 172 174 176 175 176 172 176 176 176 176 166 167 161 159 162 161 161 162 168 166 166 162 162 160 154 155 161 158 162 153 161 162 162 162 164 166 165 167 168 164 164 165 167 164 162 162 157 163 161 162 162 163 161 159 158 157 159 159 154 160 160 161 164 163 165 168 173 168 174 168 170 176 179 181 182 180 179 170 162 165 154 154 142 143 135 125 123 117 107 103 98 86 80 65 63 62 54 53 52 47 33 19 12 9 10 10 11 11 5 5 6 6 6 6 6 0 0 0 0 0 0 0 0 0 0 0 0 0 0 0 0 0 0 0 0 0 0 0 0 0 0 0 0 0 0 0 0 0 0 0 0 0 0 0 0 0 0 0 0 0 0 0 0 0 0 0 0 0 0 0 0 0 0 0 0 0 0 0 0 0 0 0 0 0 0 0 0 0 0 0 0
0 0 0 0 0 0 0 0 0 0 0 0 0 0 0 0 0 0 0 0 0 0 0 0 0 0 0 0 0 0 0 0 0 0 0 0 0 0 0 0 0 0 0 0 0 0 0 0 0 0 0 0 0 0 0 0 0 0 0 0 0 0 0 0 0 0 0 0 0 4 4 4 15 15 19 19 23 23 28 28 28 28 28 29 39 42 53 58 81 90 105 114 118 119 120 120 124 128 134 148 152 148 158 152 158 150 154 158 156 158 154 159 159 157 155 159 157 152 156 154 151 151 146 145 146 147 148 148 148 145 147 148 148 149 148 151 145 152 152 157 156 155 156 156 157 159 160 162 156 165 167 168 168 169 172 171 163 167 161 165 172 169 175 175 174 174 175 176 179 173 176 176 177 174 164 168 164 157 161 162 166 163 162 166 167 164 162 160 159 159 161 154 164 165 158 163 163 164 158 166 165 167 165 164 165 165 167 165 163 164 159 164 162 163 163 155 163 160 158 157 159 160 161 161 158 163 166 166 168 169 171 172 170 176 171 174 180 170 182 178 178 157 165 167 156 147 132 147 130 123 119 114 102 96 91 81 69 64 62 53 54 52 50 42 24 16 9 9 10 11 11 11 5 5 6 6 6 6 0 0 0 0 0 0 0 0 0 0 0 0 0 0 0 0 0 0 0 0 0 0 0 0 0 0 0 0 0 0 0 0 0 0 0 0 0 0 0 0 0 0 0 0 0 0 0 0 0 0 0 0 0 0 0 0 0 0 0 0 0 0 0 0 0 0 0 0 0 0 0 0 0 0 0 0 0
0 0 0 0 0 0 0 0 0 0 0 0 0 0 0 0 0 0 0 0 0 0 0 0 0 0 0 0 0 0 0 0 0 0 0 0 0 0 0 0 0 0 0 0 0 0 0 0 0 0 0 0 0 0 0 0 0 0 0 0 0 0 0 0 0 0 0 0 0 4 4 4 9 15 15 19 23 24 24 29 24 28 28 28 28 38 42 54 71 87 105 114 119 119 119 119 120 123 127 138 147 147 144 157 152 156 151 157 156 158 158 160 158 156 156 159 154 155 158 151 151 150 150 150 148 148 149 151 148 146 149 149 150 150 150 152 146 155 154 156 156 155 157 158 155 161 162 163 160 165 166 168 169 166 172 164 168 168 167 170 175 174 173 172 172 170 171 177 179 172 175 176 175 174 168 167 164 156 164 165 163 159 170 161 165 165 163 159 158 158 160 158 163 163 161 154 163 165 166 167 164 167 165 160 165 166 169 166 165 164 159 165 160 163 159 164 163 160 160 158 161 162 164 164 165 166 163 169 170 171 171 168 175 176 170 178 181 181 179 176 171 163 167 161 146 143 146 137 124 121 116 110 94 93 86 80 65 63 57 53 53 51 46 28 19 12 9 10 10 11 11 5 5 5 5 5 6 6 0 0 0 0 0 0 0 0 0 0 0 0 0 0 0 0 0 0 0 0 0 0 0 0 0 0 0 0 0 0 0 0 0 0 0 0 0 0 0 0 0 0 0 0 0 0 0 0 0 0 0 0 0 0 0 0 0 0 0 0 0 0 0 0 0 0 0 0 0 0 0 0 0 0 0 0 0
0 0 0 0 0 0 0 0 0 0 0 0 0 0 0 0 0 0 0 0 0 0 0 0 0 0 0 0 0 0 0 0 0 0 0 0 0 0 0 0 0 0 0 0 0 0 0 0 0 0 0 0 0 0 0 0 0 0 0 0 0 0 0 0 0 0 0 0 0 0 4 4 4 9 15 19 19 24 24 29 29 29 28 28 28 28 38 49 60 82 95 105 114 119 119 119 115 124 130 126 145 148 145 148 156 154 155 155 158 160 154 158 159 158 159 158 161 155 158 157 155 154 154 153 152 152 151 146 149 147 150 146 151 153 153 153 148 156 154 155 156 153 159 161 161 163 164 164 161 166 168 168 169 171 165 160 167 167 163 170 173 172 172 170 170 171 171 178 178 170 173 173 172 172 166 166 165 157 166 163 162 160 171 162 157 165 161 154 158 157 159 157 161 161 160 160 157 163 164 164 163 165 165 164 166 167 169 166 166 166 162 166 164 159 158 162 162 158 156 161 164 166 168 168 170 169 171 171 166 168 175 165 176 174 166 180 181 182 172 180 158 167 168 157 148 140 143 131 121 116 114 100 96 91 81 66 65 57 53 55 52 50 37 24 16 9 9 10 11 11 5 5 5 5 5 5 6 0 0 0 0 0 0 0 0 0 0 0 0 0 0 0 0 0 0 0 0 0 0 0 0 0 0 0 0 0 0 0 0 0 0 0 0 0 0 0 0 0 0 0 0 0 0 0 0 0 0 0 0 0 0 0 0 0 0 0 0 0 0 0 0 0 0 0 0 0 0 0 0 0 0 0 0 0 0
0 0 0 0 0 0 0 0 0 0 0 0 0 0 0 0 0 0 0 0 0 0 0 0 0 0 0 0 0 0 0 0 0 0 0 0 0 0 0 0 0 0 0 0 0 0 0 0 0 0 0 0 0 0 0 0 0 0 0 0 0 0 0 0 0 0 0 0 0 0 0 4 4 4 15 15 19 19 24 24 29 29 28 28 28 28 32 42 49 72 76 106 114 119 118 119 120 114 121 130 140 147 145 151 154 151 158 156 159 158 159 160 161 160 155 158 162 162 162 163 160 159 159 159 157 156 153 153 152 149 152 152 154 156 156 157 149 157 154 158 159 155 160 162 159 163 165 165 162 167 168 167 168 163 168 169 168 167 166 169 166 171 170 170 171 173 174 175 174 166 169 170 170 171 163 165 163 154 162 167 162 160 171 169 166 155 161 158 158 159 159 157 163 164 161 160 161 159 163 164 164 164 165 166 167 168 168 164 167 167 161 166 164 159 159 163 165 156 162 163 165 169 171 170 173 172 172 173 176 177 166 177 176 175 173 173 182 180 180 166 164 168 163 144 138 147 143 125 121 114 102 97 91 86 75 65 59 58 55 53 51 46 24 19 9 9 10 11 11 11 5 5 5 5 5 6 6 0 0 0 0 0 0 0 0 0 0 0 0 0 0 0 0 0 0 0 0 0 0 0 0 0 0 0 0 0 0 0 0 0 0 0 0 0 0 0 0 0 0 0 0 0 0 0 0 0 0 0 0 0 0 0 0 0 0 0 0 0 0 0 0 0 0 0 0 0 0 0 0 0 0 0 0 0 0
0 0 0 0 0 0 0 0 0 0 0 0 0 0 0 0 0 0 0 0 0 0 0 0 0 0 0 0 0 0 0 0 0 0 0 0 0 0 0 0 0 0 0 0 0 0 0 0 0 0 0 0 0 0 0 0 0 0 0 0 0 0 0 0 0 0 0 0 0 0 0 0 4 4 9 15 19 19 19 24 24 29 28 28 28 28 33 32 48 53 76 97 109 114 119 114 120 119 122 130 131 145 147 145 150 157 155 156 159 159 160 160 161 152 161 161 164 165 165 165 164 163 163 163 161 161 158 157 152 152 154 155 155 152 156 159 151 159 156 158 161 160 161 163 164 164 166 167 162 166 167 167 155 167 168 168 167 166 167 168 169 170 170 171 172 172 171 171 170 163 166 167 167 170 162 165 163 156 165 165 162 160 173 168 165 163 156 154 158 158 160 158 164 164 163 162 161 162 159 164 160 164 165 166 166 166 168 160 166 167 163 168 161 159 159 164 165 165 166 169 169 171 174 172 174 174 175 176 177 177 178 174 173 175 175 181 182 177 174 164 167 168 151 146 144 144 122 123 109 107 99 94 90 81 66 60 58 55 54 53 45 27 23 15 9 10 11 11 11 5 5 5 5 5 5 6 0 0 0 0 0 0 0 0 0 0 0 0 0 0 0 0 0 0 0 0 0 0 0 0 0 0 0 0 0 0 0 0 0 0 0 0 0 0 0 0 0 0 0 0 0 0 0 0 0 0 0 0 0 0 0 0 0 0 0 0 0 0 0 0 0 0 0 0 0 0 0 0 0 0 0 0 0 0 0
0 0 0 0 0 0 0 0 0 0 0 0 0 0 0 0 0 0 0 0 0 0 0 0 0 0 0 0 0 0 0 0 0 0 0 0 0 0 0 0 0 0 0 0 0 0 0 0 0 0 0 0 0 0 0 0 0 0 0 0 0 0 0 0 0 0 0 0 0 0 0 0 4 4 4 10 15 19 19 19 24 29 29 28 28 28 28 32 38 48 62 81 105 114 119 120 119 119 118 121 125 140 149 147 149 148 155 157 158 159 159 162 158 164 163 162 167 167 167 168 166 166 166 164 154 163 162 161 159 155 158 154 157 157 158 159 152 159 152 162 163 162 164 165 160 156 162 161 156 162 162 155 158 161 162 162 161 161 161 161 162 164 165 164 163 157 161 163 162 155 159 161 162 163 156 160 154 154 159 159 156 155 171 169 163 163 159 155 159 159 160 158 165 165 165 163 161 161 163 160 162 164 164 166 166 167 167 160 169 169 164 168 165 160 161 166 167 169 170 172 173 175 176 174 175 170 177 176 177 178 180 180 179 179 177 181 179 179 163 162 168 168 148 143 143 144 125 108 108 102 99 89 85 74 60 55 54 55 53 51 35 24 14 9 9 11 11 11 5 5 3 4 5 5 6 0 0 0 0 0 0 0 0 0 0 0 0 0 0 0 0 0 0 0 0 0 0 0 0 0 0 0 0 0 0 0 0 0 0 0 0 0 0 0 0 0 0 0 0 0 0 0 0 0 0 0 0 0 0 0 0 0 0 0 0 0 0 0 0 0 0 0 0 0 0 0 0 0 0 0 0 0 0 0 0
0 0 0 0 0 0 0 0 0 0 0 0 0 0 0 0 0 0 0 0 0 0 0 0 0 0 0 0 0 0 0 0 0 0 0 0 0 0 0 0 0 0 0 0 0 0 0 0 0 0 0 0 0 0 0 0 0 0 0 0 0 0 0 0 0 0 0 0 0 0 0 0 0 4 4 10 15 15 19 19 23 24 29 28 28 28 28 28 33 48 53 70 96 108 114 120 119 120 118 121 130 136 142 147 147 139 156 155 157 160 161 159 163 164 164 164 169 169 170 170 168 168 167 166 165 164 163 162 161 157 160 161 163 160 159 157 151 155 158 162 163 164 159 164 164 162 163 165 162 161 159 162 163 158 163 163 164 165 163 162 164 165 167 163 162 162 163 164 163 156 159 163 163 163 158 153 163 158 163 165 161 161 171 169 165 163 160 159 154 160 161 158 164 165 166 163 162 161 162 164 157 152 164 165 165 167 168 165 170 171 164 169 166 162 163 168 160 165 172 174 175 176 177 176 177 178 177 178 174 180 177 181 178 181 178 182 174 174 159 165 168 151 145 145 145 128 118 107 107 97 86 90 80 60 60 60 54 54 52 45 27 22 11 9 10 11 11 5 5 4 3 5 5 5 6 0 0 0 0 0 0 0 0 0 0 0 0 0 0 0 0 0 0 0 0 0 0 0 0 0 0 0 0 0 0 0 0 0 0 0 0 0 0 0 0 0 0 0 0 0 0 0 0 0 0 0 0 0 0 0 0 0 0 0 0 0 0 0 0 0 0 0 0 0 0 0 0 0 0 0 0 0 0 0 0
0 0 0 0 0 0 0 0 0 0 0 0 0 0 0 0 0 0 0 0 0 0 0 0 0 0 0 0 0 0 0 0 0 0 0 0 0 0 0 0 0 0 0 0 0 0 0 0 0 0 0 0 0 0 0 0 0 0 0 0 0 0 0 0 0 0 0 0 0 0 0 0 0 0 4 4 10 15 19 19 19 24 24 28 28 28 28 28 33 33 48 61 75 104 113 119 119 120 118 121 121 131 140 149 146 150 148 155 157 161 151 161 164 165 165 165 165 166 171 171 169 167 167 167 166 166 159 164 164 159 162 164 165 161 160 154 153 162 159 163 159 163 163 162 162 163 164 165 157 159 163 161 162 160 162 164 166 163 162 160 161 161 163 159 160 161 159 160 163 154 159 159 164 163 156 163 158 160 165 166 162 161 171 169 166 163 160 157 158 156 155 159 165 167 166 163 161 161 160 163 159 158 158 165 166 167 168 166 170 173 171 170 169 165 166 170 172 173 175 175 176 177 179 177 164 178 178 178 180 176 182 180 181 182 178 175 179 162 161 167 167 147 146 143 144 120 108 106 101 96 94 86 69 60 59 54 54 53 52 26 27 14 9 10 11 11 11 5 5 3 4 5 5 6 0 0 0 0 0 0 0 0 0 0 0 0 0 0 0 0 0 0 0 0 0 0 0 0 0 0 0 0 0 0 0 0 0 0 0 0 0 0 0 0 0 0 0 0 0 0 0 0 0 0 0 0 0 0 0 0 0 0 0 0 0 0 0 0 0 0 0 0 0 0 0 0 0 0 0 0 0 0 0 0 0
0 0 0 0 0 0 0 0 0 0 0 0 0 0 0 0 0 0 0 0 0 0 0 0 0 0 0 0 0 0 0 0 0 0 0 0 0 0 0 0 0 0 0 0 0 0 0 0 0 0 0 0 0 0 0 0 0 0 0 0 0 0 0 0 0 0 0 0 0 0 0 0 0 0 0 4 10 15 15 19 19 18 24 23 28 28 28 28 28 33 33 49 66 90 102 118 119 119 119 118 122 131 141 145 148 146 149 147 156 159 161 162 166 164 165 166 165 170 171 170 170 170 170 168 168 167 166 166 166 161 161 164 164 162 162 162 154 163 154 163 162 161 160 160 160 163 158 165 161 160 163 161 162 161 163 164 164 161 160 158 158 159 158 157 157 158 156 159 163 155 160 161 164 160 160 164 164 161 165 167 162 162 170 169 166 165 160 159 160 160 157 159 166 165 167 165 163 163 163 163 163 164 161 166 166 167 163 166 168 174 172 172 171 166 166 170 173 174 170 177 178 173 179 178 179 174 170 170 180 181 180 178 181 182 175 183 174 166 164 167 154 145 140 139 122 113 107 107 98 94 90 74 60 59 60 54 54 52 35 26 22 11 9 10 11 10 5 5 4 3 5 5 6 0 0 0 0 0 0 0 0 0 0 0 0 0 0 0 0 0 0 0 0 0 0 0 0 0 0 0 0 0 0 0 0 0 0 0 0 0 0 0 0 0 0 0 0 0 0 0 0 0 0 0 0 0 0 0 0 0 0 0 0 0 0 0 0 0 0 0 0 0 0 0 0 0 0 0 0 0 0 0 0 0 0
0 0 0 0 0 0 0 0 0 0 0 0 0 0 0 0 0 0 0 0 0 0 0 0 0 0 0 0 0 0 0 0 0 0 0 0 0 0 0 0 0 0 0 0 0 0 0 0 0 0 0 0 0 0 0 0 0 0 0 0 0 0 0 0 0 0 0 0 0 0 0 0 0 0 0 0 4 9 15 19 19 18 19 24 28 28 28 28 28 33 33 43 66 75 98 112 119 119 119 118 122 127 131 146 148 149 147 149 147 160 161 160 165 164 163 165 165 170 167 170 170 171 171 170 169 167 167 167 167 162 165 165 160 159 163 163 148 162 159 161 159 159 159 159 161 164 165 158 163 163 161 160 163 164 160 165 164 159 158 157 155 157 156 154 153 156 158 160 163 155 161 162 161 162 161 164 165 161 165 166 163 160 171 170 167 165 161 159 159 156 161 154 164 165 167 166 165 164 164 165 165 165 166 161 166 168 168 167 169 174 174 173 171 167 168 172 174 175 172 177 178 178 178 177 178 181 179 181 181 176 179 181 183 183 176 181 166 166 168 161 145 146 143 138 115 109 106 100 92 94 86 64 60 59 54 54 53 46 26 26 13 9 10 10 10 5 5 5 3 5 5 5 6 0 0 0 0 0 0 0 0 0 0 0 0 0 0 0 0 0 0 0 0 0 0 0 0 0 0 0 0 0 0 0 0 0 0 0 0 0 0 0 0 0 0 0 0 0 0 0 0 0 0 0 0 0 0 0 0 0 0 0 0 0 0 0 0 0 0 0 0 0 0 0 0 0 0 0 0 0 0 0 0 0 0
0 0 0 0 0 0 0 0 0 0 0 0 0 0 0 0 0 0 0 0 0 0 0 0 0 0 0 0 0 0 0 0 0 0 0 0 0 0 0 0 0 0 0 0 0 0 0 0 0 0 0 0 0 0 0 0 0 0 0 0 0 0 0 0 0 0 0 0 0 0 0 0 0 0 0 0 4 9 10 15 19 19 18 19 23 28 28 28 28 28 33 33 43 71 85 102 118 119 118 118 117 122 132 141 144 149 148 149 141 156 159 161 160 164 164 166 160 165 169 170 171 171 171 165 169 168 168 168 168 162 163 165 165 165 159 162 154 162 157 160 160 159 158 153 161 164 156 161 158 160 160 160 164 164 162 162 160 155 159 158 154 156 153 154 156 158 160 163 157 155 160 157 166 167 161 163 160 160 160 165 163 161 172 170 166 165 161 153 158 161 162 158 159 166 167 168 166 165 165 165 165 166 166 167 162 168 168 165 169 172 172 168 173 169 169 173 169 176 177 177 177 178 169 175 173 178 178 181 180 181 175 182 183 183 178 167 161 162 166 151 146 143 139 132 113 107 105 96 95 90 74 60 59 61 53 54 52 25 25 21 9 10 10 10 11 5 5 3 4 5 5 6 0 0 0 0 0 0 0 0 0 0 0 0 0 0 0 0 0 0 0 0 0 0 0 0 0 0 0 0 0 0 0 0 0 0 0 0 0 0 0 0 0 0 0 0 0 0 0 0 0 0 0 0 0 0 0 0 0 0 0 0 0 0 0 0 0 0 0 0 0 0 0 0 0 0 0 0 0 0 0 0 0 0 0
0 0 0 0 0 0 0 0 0 0 0 0 0 0 0 0 0 0 0 0 0 0 0 0 0 0 0 0 0 0 0 0 0 0 0 0 0 0 0 0 0 0 0 0 0 0 0 0 0 0 0 0 0 0 0 0 0 0 0 0 0 0 0 0 0 0 0 0 0 0 0 0 0 0 0 0 0 4 10 15 19 18 18 19 18 22 28 28 28 28 29 33 39 60 75 98 113 119 119 118 118 121 124 130 145 149 148 150 150 145 158 160 161 165 164 165 166 166 170 170 171 171 171 170 169 169 170 170 168 156 164 166 160 163 162 162 153 162 157 160 162 161 157 158 161 156 159 157 160 158 159 160 161 156 158 158 156 158 157 155 153 155 156 159 161 162 160 157 162 155 157 163 166 167 160 163 165 159 164 164 161 159 165 169 167 167 157 160 159 161 161 159 166 163 167 163 167 167 164 165 167 166 166 167 167 164 167 164 169 171 172 171 171 170 169 173 175 170 177 178 179 178 179 179 177 177 178 175 175 174 181 182 183 181 177 166 165 166 159 144 146 144 135 111 108 105 104 91 98 86 64 59 60 55 54 52 37 25 26 14 9 10 10 11 5 5 4 3 5 5 5 0 0 0 0 0 0 0 0 0 0 0 0 0 0 0 0 0 0 0 0 0 0 0 0 0 0 0 0 0 0 0 0 0 0 0 0 0 0 0 0 0 0 0 0 0 0 0 0 0 0 0 0 0 0 0 0 0 0 0 0 0 0 0 0 0 0 0 0 0 0 0 0 0 0 0 0 0 0 0 0 0 0 0 0
0 0 0 0 0 0 0 0 0 0 0 0 0 0 0 0 0 0 0 0 0 0 0 0 0 0 0 0 0 0 0 0 0 0 0 0 0 0 0 0 0 0 0 0 0 0 0 0 0 0 0 0 0 0 0 0 0 0 0 0 0 0 0 0 0 0 0 0 0 0 0 0 0 0 0 0 0 0 4 10 15 18 18 19 18 23 28 28 28 28 28 33 33 43 66 75 103 119 119 118 118 117 121 132 146 143 148 146 150 147 145 160 156 162 164 164 160 166 169 170 166 167 171 170 169 169 163 168 168 158 159 164 163 161 161 159 152 162 157 160 156 158 160 161 157 160 153 157 158 158 157 161 158 157 155 156 156 156 156 156 155 155 156 158 161 162 160 161 162 152 164 164 167 167 160 163 163 158 163 165 159 159 170 169 170 166 163 161 160 162 163 159 164 166 163 169 169 168 165 166 165 166 162 167 168 169 161 164 170 171 172 170 171 163 167 174 176 167 178 175 179 172 174 177 177 177 178 177 178 176 182 182 181 182 161 166 165 164 150 147 142 138 133 112 106 104 92 96 89 74 60 59 56 53 53 53 26 25 21 9 10 10 10 5 5 5 3 4 5 5 6 0 0 0 0 0 0 0 0 0 0 0 0 0 0 0 0 0 0 0 0 0 0 0 0 0 0 0 0 0 0 0 0 0 0 0 0 0 0 0 0 0 0 0 0 0 0 0 0 0 0 0 0 0 0 0 0 0 0 0 0 0 0 0 0 0 0 0 0 0 0 0 0 0 0 0 0 0 0 0 0 0 0 0 0
0 0 0 0 0 0 0 0 0 0 0 0 0 0 0 0 0 0 0 0 0 0 0 0 0 0 0 0 0 0 0 0 0 0 0 0 0 0 0 0 0 0 0 0 0 0 0 0 0 0 0 0 0 0 0 0 0 0 0 0 0 0 0 0 0 0 0 0 0 0 0 0 0 0 0 0 0 0 0 10 10 15 18 18 19 18 23 28 28 28 28 29 33 39 66 65 94 108 118 118 118 118 120 126 130 143 143 147 150 149 148 161 162 161 165 165 164 165 165 168 170 171 171 170 170 166 166 167 161 154 161 163 162 160 159 159 155 162 156 160 160 160 160 156 159 158 158 156 156 155 155 157 156 152 155 155 157 156 157 157 155 156 156 158 160 157 159 161 160 159 167 168 169 168 162 165 165 159 164 165 161 159 170 171 170 168 163 159 160 161 162 158 164 165 163 164 169 162 165 165 165 166 161 168 168 166 166 160 170 171 172 170 163 168 168 167 174 173 179 179 179 179 178 177 177 177 178 177 177 179 180 182 181 181 160 160 164 156 141 139 140 132 112 110 104 103 90 97 80 63 60 60 55 53 52 28 25 25 14 9 10 10 5 5 5 4 3 5 5 5 0 0 0 0 0 0 0 0 0 0 0 0 0 0 0 0 0 0 0 0 0 0 0 0 0 0 0 0 0 0 0 0 0 0 0 0 0 0 0 0 0 0 0 0 0 0 0 0 0 0 0 0 0 0 0 0 0 0 0 0 0 0 0 0 0 0 0 0 0 0 0 0 0 0 0 0 0 0 0 0 0 0 0 0 0
0 0 0 0 0 0 0 0 0 0 0 0 0 0 0 0 0 0 0 0 0 0 0 0 0 0 0 0 0 0 0 0 0 0 0 0 0 0 0 0 0 0 0 0 0 0 0 0 0 0 0 0 0 0 0 0 0 0 0 0 0 0 0 0 0 0 0 0 0 0 0 0 0 0 0 0 0 0 0 0 10 15 18 18 19 18 18 22 28 28 28 29 33 33 39 66 70 102 118 118 118 118 116 127 130 144 143 148 145 150 147 150 158 160 163 166 164 165 165 170 170 171 171 167 167 167 161 158 164 153 160 162 160 159 159 156 156 157 156 159 161 161 155 155 159 157 156 157 151 153 153 154 153 152 155 155 158 154 158 152 156 156 157 158 159 159 161 159 165 161 169 170 170 170 164 167 166 161 165 161 163 160 170 170 170 169 164 159 159 161 161 157 160 165 165 167 164 166 165 164 165 166 167 168 164 166 167 156 167 173 173 172 173 164 170 169 167 177 171 177 180 177 177 177 176 177 177 176 175 179 180 179 174 166 161 165 156 152 144 141 137 125 103 103 101 92 95 92 73 60 59 56 53 53 38 26 25 17 9 10 10 11 5 5 5 3 5 5 5 6 0 0 0 0 0 0 0 0 0 0 0 0 0 0 0 0 0 0 0 0 0 0 0 0 0 0 0 0 0 0 0 0 0 0 0 0 0 0 0 0 0 0 0 0 0 0 0 0 0 0 0 0 0 0 0 0 0 0 0 0 0 0 0 0 0 0 0 0 0 0 0 0 0 0 0 0 0 0 0 0 0 0 0 0 0
0 0 0 0 0 0 0 0 0 0 0 0 0 0 0 0 0 0 0 0 0 0 0 0 0 0 0 0 0 0 0 0 0 0 0 0 0 0 0 0 0 0 0 0 0 0 0 0 0 0 0 0 0 0 0 0 0 0 0 0 0 0 0 0 0 0 0 0 0 0 0 0 0 0 0 0 0 0 0 0 10 10 15 19 19 18 18 18 22 28 28 28 28 28 33 61 66 83 113 118 117 118 118 121 126 136 144 143 145 146 148 149 153 163 159 166 165 164 165 170 169 167 168 167 163 165 164 164 165 154 157 158 158 159 158 155 155 163 156 159 160 151 158 154 158 156 155 155 154 151 153 154 155 154 155 158 154 158 156 152 157 157 157 156 157 159 158 164 167 161 169 169 169 170 165 168 168 162 167 164 164 159 169 171 170 170 165 157 159 159 160 157 163 160 164 167 166 160 165 163 159 166 160 170 171 168 163 168 174 170 173 173 175 172 174 173 173 176 177 172 176 177 173 176 176 176 176 169 177 179 180 179 179 164 160 160 153 149 141 139 132 111 107 102 96 89 94 79 62 58 61 55 46 52 28 25 26 14 10 10 10 5 5 5 3 4 5 5 6 0 0 0 0 0 0 0 0 0 0 0 0 0 0 0 0 0 0 0 0 0 0 0 0 0 0 0 0 0 0 0 0 0 0 0 0 0 0 0 0 0 0 0 0 0 0 0 0 0 0 0 0 0 0 0 0 0 0 0 0 0 0 0 0 0 0 0 0 0 0 0 0 0 0 0 0 0 0 0 0 0 0 0 0 0 0
0 0 0 0 0 0 0 0 0 0 0 0 0 0 0 0 0 0 0 0 0 0 0 0 0 0 0 0 0 0 0 0 0 0 0 0 0 0 0 0 0 0 0 0 0 0 0 0 0 0 0 0 0 0 0 0 0 0 0 0 0 0 0 0 0 0 0 0 0 0 0 0 0 0 0 0 0 0 0 0 0 10 15 18 18 19 18 18 17 28 28 28 28 28 33 45 66 70 98 119 118 119 118 121 126 129 143 143 145 146 148 149 151 163 162 167 165 164 164 165 169 170 166 168 167 162 165 161 164 154 162 161 160 160 147 160 152 163 159 162 162 160 159 157 152 156 156 156 155 154 154 156 155 158 159 160 158 157 157 157 158 157 158 157 156 156 164 165 167 162 170 170 169 169 164 169 169 164 168 170 165 158 166 171 171 170 167 164 160 159 161 158 163 164 164 161 166 158 161 167 166 168 164 165 170 168 165 168 174 176 172 175 177 168 174 173 176 176 177 175 171 176 175 174 176 175 175 173 178 179 178 180 166 166 160 155 151 139 141 137 125 109 103 101 89 96 87 68 58 59 56 54 52 33 26 24 17 10 10 10 5 5 5 4 3 5 5 5 0 0 0 0 0 0 0 0 0 0 0 0 0 0 0 0 0 0 0 0 0 0 0 0 0 0 0 0 0 0 0 0 0 0 0 0 0 0 0 0 0 0 0 0 0 0 0 0 0 0 0 0 0 0 0 0 0 0 0 0 0 0 0 0 0 0 0 0 0 0 0 0 0 0 0 0 0 0 0 0 0 0 0 0 0 0 0
0 0 0 0 0 0 0 0 0 0 0 0 0 0 0 0 0 0 0 0 0 0 0 0 0 0 0 0 0 0 0 0 0 0 0 0 0 0 0 0 0 0 0 0 0 0 0 0 0 0 0 0 0 0 0 0 0 0 0 0 0 0 0 0 0 0 0 0 0 0 0 0 0 0 0 0 0 0 0 0 0 5 10 15 19 19 18 18 17 23 28 28 28 28 33 33 57 66 84 108 118 119 119 117 120 125 143 143 142 145 148 149 149 154 162 164 167 164 163 161 164 169 170 170 170 168 167 166 166 147 164 162 162 161 155 160 154 164 160 164 162 158 158 156 156 146 155 152 151 153 152 156 158 160 160 154 160 159 159 159 158 152 157 159 156 160 164 165 167 163 171 171 165 169 164 169 171 160 168 170 165 160 171 172 173 171 169 165 160 154 162 159 157 166 166 164 169 169 162 163 167 168 170 170 166 171 172 170 177 173 178 171 171 173 175 179 177 176 175 176 175 176 175 175 175 176 174 175 179 180 180 168 166 166 164 153 149 137 139 127 109 107 103 95 89 96 83 58 59 62 55 52 46 28 25 26 15 10 10 11 5 5 5 3 4 5 5 6 0 0 0 0 0 0 0 0 0 0 0 0 0 0 0 0 0 0 0 0 0 0 0 0 0 0 0 0 0 0 0 0 0 0 0 0 0 0 0 0 0 0 0 0 0 0 0 0 0 0 0 0 0 0 0 0 0 0 0 0 0 0 0 0 0 0 0 0 0 0 0 0 0 0 0 0 0 0 0 0 0 0 0 0 0 0 0
0 0 0 0 0 0 0 0 0 0 0 0 0 0 0 0 0 0 0 0 0 0 0 0 0 0 0 0 0 0 0 0 0 0 0 0 0 0 0 0 0 0 0 0 0 0 0 0 0 0 0 0 0 0 0 0 0 0 0 0 0 0 0 0 0 0 0 0 0 0 0 0 0 0 0 0 0 0 0 0 0 0 5 10 15 19 18 18 18 18 23 28 28 28 29 33 45 66 66 92 108 118 119 118 121 126 125 144 142 140 145 148 148 151 152 164 167 166 156 163 167 169 171 171 170 170 168 162 165 156 166 160 163 157 160 162 161 166 163 166 163 149 159 158 159 158 152 157 155 153 156 157 158 160 160 160 160 153 158 157 156 157 160 158 163 163 161 167 168 165 172 170 165 169 165 168 169 164 169 170 162 162 172 172 173 171 168 155 160 158 161 160 165 166 162 169 170 170 165 171 165 171 171 171 171 170 175 172 174 180 174 176 167 174 170 178 178 175 176 177 175 177 177 172 176 176 175 177 179 176 180 168 165 160 153 155 140 141 136 124 109 103 99 89 97 88 68 59 60 56 54 47 27 26 25 18 10 10 11 5 5 5 4 3 5 5 5 0 0 0 0 0 0 0 0 0 0 0 0 0 0 0 0 0 0 0 0 0 0 0 0 0 0 0 0 0 0 0 0 0 0 0 0 0 0 0 0 0 0 0 0 0 0 0 0 0 0 0 0 0 0 0 0 0 0 0 0 0 0 0 0 0 0 0 0 0 0 0 0 0 0 0 0 0 0 0 0 0 0 0 0 0 0 0 0
0 0 0 0 0 0 0 0 0 0 0 0 0 0 0 0 0 0 0 0 0 0 0 0 0 0 0 0 0 0 0 0 0 0 0 0 0 0 0 0 0 0 0 0 0 0 0 0 0 0 0 0 0 0 0 0 0 0 0 0 0 0 0 0 0 0 0 0 0 0 0 0 0 0 0 0 0 0 0 0 0 0 5 10 15 19 18 18 18 17 17 28 28 28 28 33 39 58 66 84 108 113 119 119 117 120 125 144 142 141 146 148 150 150 147 161 159 167 165 165 168 170 172 171 171 170 166 167 166 157 167 166 163 162 161 161 160 163 167 166 163 163 163 162 160 162 161 156 152 154 158 158 157 159 160 160 159 159 158 156 157 155 157 163 164 165 163 168 170 166 172 171 170 169 163 168 167 163 168 169 165 162 159 172 171 171 168 164 161 160 157 161 164 169 170 170 168 172 172 171 171 168 172 174 176 177 176 173 179 180 174 177 178 170 175 178 180 177 177 178 178 179 178 178 178 177 172 178 179 180 163 169 166 152 152 143 142 139 127 111 102 104 96 91 96 83 58 59 62 51 52 31 27 24 26 10 10 11 5 5 5 5 3 5 5 5 0 0 0 0 0 0 0 0 0 0 0 0 0 0 0 0 0 0 0 0 0 0 0 0 0 0 0 0 0 0 0 0 0 0 0 0 0 0 0 0 0 0 0 0 0 0 0 0 0 0 0 0 0 0 0 0 0 0 0 0 0 0 0 0 0 0 0 0 0 0 0 0 0 0 0 0 0 0 0 0 0 0 0 0 0 0 0 0 0
0 0 0 0 0 0 0 0 0 0 0 0 0 0 0 0 0 0 0 0 0 0 0 0 0 0 0 0 0 0 0 0 0 0 0 0 0 0 0 0 0 0 0 0 0 0 0 0 0 0 0 0 0 0 0 0 0 0 0 0 0 0 0 0 0 0 0 0 0 0 0 0 0 0 0 0 0 0 0 0 0 0 0 5 10 15 18 18 18 17 17 18 28 28 28 29 39 45 57 66 98 107 114 120 118 121 124 138 143 141 141 139 151 149 151 147 163 167 167 166 165 170 172 167 171 170 170 169 162 159 169 165 163 162 161 162 162 167 162 165 162 157 160 162 161 162 160 162 144 158 160 158 158 161 160 157 161 160 160 159 161 160 164 165 164 160 166 169 166 166 173 171 170 169 168 167 166 163 167 170 166 162 171 171 170 170 160 163 160 164 164 163 169 170 171 171 173 173 171 166 173 169 169 176 176 171 176 172 178 169 179 178 177 175 171 179 180 178 178 179 179 180 179 178 178 177 179 178 176 179 168 166 165 156 156 140 142 127 123 110 104 100 89 95 87 71 59 61 56 54 47 27 26 25 21 10 10 5 5 5 5 3 4 5 5 5 0 0 0 0 0 0 0 0 0 0 0 0 0 0 0 0 0 0 0 0 0 0 0 0 0 0 0 0 0 0 0 0 0 0 0 0 0 0 0 0 0 0 0 0 0 0 0 0 0 0 0 0 0 0 0 0 0 0 0 0 0 0 0 0 0 0 0 0 0 0 0 0 0 0 0 0 0 0 0 0 0 0 0 0 0 0 0 0 0
0 0 0 0 0 0 0 0 0 0 0 0 0 0 0 0 0 0 0 0 0 0 0 0 0 0 0 0 0 0 0 0 0 0 0 0 0 0 0 0 0 0 0 0 0 0 0 0 0 0 0 0 0 0 0 0 0 0 0 0 0 0 0 0 0 0 0 0 0 0 0 0 0 0 0 0 0 0 0 0 0 0 0 5 5 10 18 18 18 17 17 18 18 28 28 29 33 39 57 66 75 107 114 115 119 116 124 124 144 142 141 145 149 149 146 152 143 163 167 166 165 172 169 171 171 170 170 169 168 160 169 167 166 162 163 165 162 166 166 165 163 157 160 163 163 159 164 163 161 154 160 159 158 159 159 159 161 162 163 163 159 164 159 163 164 167 167 169 171 165 172 171 171 169 162 166 167 162 161 170 162 163 167 174 173 171 170 168 161 164 165 164 169 164 170 170 171 172 170 172 174 174 176 172 177 177 177 177 179 181 181 174 175 176 177 179 180 178 178 180 175 180 179 179 177 179 179 177 178 167 168 164 151 154 145 143 139 127 112 107 100 98 91 86 88 58 59 62 56 47 31 27 25 27 10 10 11 5 5 5 4 3 5 5 5 0 0 0 0 0 0 0 0 0 0 0 0 0 0 0 0 0 0 0 0 0 0 0 0 0 0 0 0 0 0 0 0 0 0 0 0 0 0 0 0 0 0 0 0 0 0 0 0 0 0 0 0 0 0 0 0 0 0 0 0 0 0 0 0 0 0 0 0 0 0 0 0 0 0 0 0 0 0 0 0 0 0 0 0 0 0 0 0 0 0
0 0 0 0 0 0 0 0 0 0 0 0 0 0 0 0 0 0 0 0 0 0 0 0 0 0 0 0 0 0 0 0 0 0 0 0 0 0 0 0 0 0 0 0 0 0 0 0 0 0 0 0 0 0 0 0 0 0 0 0 0 0 0 0 0 0 0 0 0 0 0 0 0 0 0 0 0 0 0 0 0 0 0 0 5 5 15 18 18 17 17 18 18 18 28 29 29 39 39 58 66 102 108 115 114 117 120 123 138 143 141 140 144 150 150 151 151 149 166 166 165 170 173 173 171 165 171 170 169 160 169 167 165 164 164 168 163 167 161 164 163 162 163 164 162 165 166 164 163 158 155 161 151 161 161 156 162 163 162 159 161 162 162 163 167 169 168 169 171 160 172 170 170 168 161 166 167 163 162 169 166 162 171 173 173 165 170 169 167 161 161 161 167 170 172 171 171 171 165 167 173 177 178 178 172 177 172 179 181 183 183 181 180 171 176 179 180 179 179 180 180 180 179 178 177 175 180 176 177 168 167 158 145 151 147 143 128 123 109 105 99 94 94 87 70 58 61 56 54 37 27 26 26 21 10 11 5 5 5 5 3 4 5 5 0 0 0 0 0 0 0 0 0 0 0 0 0 0 0 0 0 0 0 0 0 0 0 0 0 0 0 0 0 0 0 0 0 0 0 0 0 0 0 0 0 0 0 0 0 0 0 0 0 0 0 0 0 0 0 0 0 0 0 0 0 0 0 0 0 0 0 0 0 0 0 0 0 0 0 0 0 0 0 0 0 0 0 0 0 0 0 0 0 0 0
0 0 0 0 0 0 0 0 0 0 0 0 0 0 0 0 0 0 0 0 0 0 0 0 0 0 0 0 0 0 0 0 0 0 0 0 0 0 0 0 0 0 0 0 0 0 0 0 0 0 0 0 0 0 0 0 0 0 0 0 0 0 0 0 0 0 0 0 0 0 0 0 0 0 0 0 0 0 0 0 0 0 0 0 0 5 5 18 18 18 17 17 18 18 28 28 29 35 39 58 63 74 102 110 115 118 116 123 130 143 141 141 140 151 151 150 151 153 158 166 166 166 173 173 173 170 170 167 169 160 170 167 164 163 161 170 163 166 162 167 167 166 166 166 166 163 167 159 162 164 164 159 164 161 163 164 163 162 158 161 161 161 162 165 168 169 170 171 166 159 171 170 168 166 159 163 166 162 167 169 165 161 172 172 173 170 168 163 166 163 164 164 169 172 173 173 171 172 172 172 175 173 179 178 173 173 182 182 183 184 183 181 181 176 176 179 174 178 179 180 181 179 178 177 179 175 179 176 166 168 164 154 156 150 144 136 125 112 107 100 98 91 85 83 66 60 62 55 47 26 26 25 23 10 10 5 5 5 5 4 3 5 5 5 0 0 0 0 0 0 0 0 0 0 0 0 0 0 0 0 0 0 0 0 0 0 0 0 0 0 0 0 0 0 0 0 0 0 0 0 0 0 0 0 0 0 0 0 0 0 0 0 0 0 0 0 0 0 0 0 0 0 0 0 0 0 0 0 0 0 0 0 0 0 0 0 0 0 0 0 0 0 0 0 0 0 0 0 0 0 0 0 0 0 0
0 0 0 0 0 0 0 0 0 0 0 0 0 0 0 0 0 0 0 0 0 0 0 0 0 0 0 0 0 0 0 0 0 0 0 0 0 0 0 0 0 0 0 0 0 0 0 0 0 0 0 0 0 0 0 0 0 0 0 0 0 0 0 0 0 0 0 0 0 0 0 0 0 0 0 0 0 0 0 0 0 0 0 0 0 5 5 15 18 18 17 17 18 18 18 28 29 29 39 40 58 65 98 109 115 113 116 118 125 138 142 141 140 146 150 150 150 153 154 162 166 166 172 172 173 171 168 170 170 160 170 167 165 165 164 164 163 161 162 162 163 161 162 163 164 162 164 163 159 162 157 161 156 161 162 160 158 150 156 157 157 156 150 161 163 165 164 166 166 160 161 165 162 162 159 154 166 158 166 168 165 161 171 172 173 172 171 169 169 165 165 164 172 172 173 171 172 173 168 174 177 175 180 168 178 182 177 182 183 184 183 181 180 175 175 180 179 178 179 179 180 180 178 177 180 181 177 176 167 166 154 148 152 141 143 127 123 110 96 99 95 93 86 69 58 62 56 50 30 26 27 26 22 10 5 5 5 5 5 3 5 5 5 0 0 0 0 0 0 0 0 0 0 0 0 0 0 0 0 0 0 0 0 0 0 0 0 0 0 0 0 0 0 0 0 0 0 0 0 0 0 0 0 0 0 0 0 0 0 0 0 0 0 0 0 0 0 0 0 0 0 0 0 0 0 0 0 0 0 0 0 0 0 0 0 0 0 0 0 0 0 0 0 0 0 0 0 0 0 0 0 0 0 0 0
0 0 0 0 0 0 0 0 0 0 0 0 0 0 0 0 0 0 0 0 0 0 0 0 0 0 0 0 0 0 0 0 0 0 0 0 0 0 0 0 0 0 0 0 0 0 0 0 0 0 0 0 0 0 0 0 0 0 0 0 0 0 0 0 0 0 0 0 0 0 0 0 0 0 0 0 0 0 0 0 0 0 0 0 0 0 5 5 14 18 17 17 18 18 18 18 29 29 35 39 58 62 69 104 110 114 112 120 123 130 143 141 141 140 150 152 150 152 153 157 161 167 172 172 172 171 172 171 170 160 170 167 165 164 165 169 169 169 170 170 170 170 163 166 168 164 169 169 171 172 172 172 171 157 165 164 160 162 162 162 164 160 168 168 169 170 164 171 171 165 169 169 167 167 163 163 163 160 167 168 164 163 174 174 175 173 171 171 168 166 166 166 173 174 173 172 173 173 174 176 177 178 168 172 180 177 183 177 183 184 183 179 180 174 176 180 170 178 179 179 174 179 177 180 182 177 177 164 166 163 153 148 150 144 132 124 112 106 99 96 94 84 77 66 61 57 55 39 25 26 25 24 10 11 5 5 5 5 4 4 5 5 0 0 0 0 0 0 0 0 0 0 0 0 0 0 0 0 0 0 0 0 0 0 0 0 0 0 0 0 0 0 0 0 0 0 0 0 0 0 0 0 0 0 0 0 0 0 0 0 0 0 0 0 0 0 0 0 0 0 0 0 0 0 0 0 0 0 0 0 0 0 0 0 0 0 0 0 0 0 0 0 0 0 0 0 0 0 0 0 0 0 0 0 0
0 0 0 0 0 0 0 0 0 0 0 0 0 0 0 0 0 0 0 0 0 0 0 0 0 0 0 0 0 0 0 0 0 0 0 0 0 0 0 0 0 0 0 0 0 0 0 0 0 0 0 0 0 0 0 0 0 0 0 0 0 0 0 0 0 0 0 0 0 0 0 0 0 0 0 0 0 0 0 0 0 0 0 0 0 0 5 5 4 18 18 17 17 18 18 18 24 29 35 39 40 58 65 95 105 114 112 110 117 130 138 141 141 140 150 153 149 150 153 154 167 162 168 171 171 171 172 171 169 159 169 163 165 165 166 169 170 169 171 171 171 170 169 167 167 172 172 171 167 173 172 172 171 165 162 162 159 163 163 163 165 168 170 169 170 165 164 170 171 163 164 168 166 160 162 161 164 160 167 163 165 163 174 169 175 174 172 171 169 170 169 166 173 174 174 174 174 175 176 177 171 172 178 179 181 183 184 178 177 184 182 181 176 177 175 179 176 178 179 177 179 174 176 181 180 177 167 165 164 151 156 150 146 137 126 124 108 102 98 96 87 86 70 63 62 56 40 24 25 27 27 19 10 5 5 5 5 4 3 5 5 5 0 0 0 0 0 0 0 0 0 0 0 0 0 0 0 0 0 0 0 0 0 0 0 0 0 0 0 0 0 0 0 0 0 0 0 0 0 0 0 0 0 0 0 0 0 0 0 0 0 0 0 0 0 0 0 0 0 0 0 0 0 0 0 0 0 0 0 0 0 0 0 0 0 0 0 0 0 0 0 0 0 0 0 0 0 0 0 0 0 0 0 0 0
0 0 0 0 0 0 0 0 0 0 0 0 0 0 0 0 0 0 0 0 0 0 0 0 0 0 0 0 0 0 0 0 0 0 0 0 0 0 0 0 0 0 0 0 0 0 0 0 0 0 0 0 0 0 0 0 0 0 0 0 0 0 0 0 0 0 0 0 0 0 0 0 0 0 0 0 0 0 0 0 0 0 0 0 0 0 0 5 4 9 18 17 17 18 18 18 18 24 29 35 40 58 56 69 99 110 113 111 113 125 134 141 141 140 142 151 151 149 153 154 157 167 162 172 170 171 171 170 169 160 167 168 165 166 166 169 169 170 171 167 171 170 169 170 171 173 171 171 171 172 172 172 170 168 157 159 164 164 164 160 166 168 169 170 170 171 163 169 169 157 167 167 165 164 162 162 164 158 168 165 168 164 175 168 175 175 169 175 175 175 165 166 172 175 174 174 174 177 177 178 173 179 180 181 182 183 183 183 182 177 183 181 181 177 175 180 176 177 178 178 179 173 176 179 166 175 165 164 154 149 147 149 144 133 125 113 103 99 96 88 82 74 66 61 57 51 38 24 25 26 24 10 5 5 5 5 5 3 4 5 5 0 0 0 0 0 0 0 0 0 0 0 0 0 0 0 0 0 0 0 0 0 0 0 0 0 0 0 0 0 0 0 0 0 0 0 0 0 0 0 0 0 0 0 0 0 0 0 0 0 0 0 0 0 0 0 0 0 0 0 0 0 0 0 0 0 0 0 0 0 0 0 0 0 0 0 0 0 0 0 0 0 0 0 0 0 0 0 0 0 0 0 0 0 0
0 0 0 0 0 0 0 0 0 0 0 0 0 0 0 0 0 0 0 0 0 0 0 0 0 0 0 0 0 0 0 0 0 0 0 0 0 0 0 0 0 0 0 0 0 0 0 0 0 0 0 0 0 0 0 0 0 0 0 0 0 0 0 0 0 0 0 0 0 0 0 0 0 0 0 0 0 0 0 0 0 0 0 0 0 0 0 5 4 4 18 18 17 18 18 18 18 19 29 35 35 40 57 65 96 104 109 112 110 118 129 137 141 141 141 151 142 149 150 154 154 157 168 167 170 171 170 170 169 159 170 167 165 166 167 169 166 170 167 170 170 170 169 169 171 173 171 166 171 171 170 171 168 163 166 165 160 166 167 168 165 170 163 168 164 168 161 167 167 156 166 167 165 165 164 164 165 157 169 168 168 160 175 177 176 176 176 175 176 174 170 166 173 174 173 174 176 172 178 173 179 179 180 182 183 183 184 183 180 176 183 181 181 177 176 174 176 179 178 180 178 174 176 179 178 163 166 163 152 155 145 145 138 124 123 109 101 98 96 86 84 74 64 62 51 40 23 24 28 27 20 11 5 5 5 5 4 4 5 5 5 0 0 0 0 0 0 0 0 0 0 0 0 0 0 0 0 0 0 0 0 0 0 0 0 0 0 0 0 0 0 0 0 0 0 0 0 0 0 0 0 0 0 0 0 0 0 0 0 0 0 0 0 0 0 0 0 0 0 0 0 0 0 0 0 0 0 0 0 0 0 0 0 0 0 0 0 0 0 0 0 0 0 0 0 0 0 0 0 0 0 0 0 0 0
0 0 0 0 0 0 0 0 0 0 0 0 0 0 0 0 0 0 0 0 0 0 0 0 0 0 0 0 0 0 0 0 0 0 0 0 0 0 0 0 0 0 0 0 0 0 0 0 0 0 0 0 0 0 0 0 0 0 0 0 0 0 0 0 0 0 0 0 0 0 0 0 0 0 0 0 0 0 0 0 0 0 0 0 0 0 0 0 5 4 4 18 18 18 18 18 19 19 19 35 35 40 51 56 72 100 104 112 111 113 119 133 142 141 141 143 153 150 149 154 154 157 167 168 165 171 171 169 169 158 169 167 166 166 168 166 172 171 172 173 171 171 169 165 170 173 171 172 172 171 171 170 167 168 168 168 167 161 167 169 171 170 170 160 164 162 151 166 166 156 168 167 161 166 165 165 161 159 170 168 169 165 175 175 175 176 176 177 176 174 167 168 173 174 174 175 176 173 173 179 180 181 183 183 182 183 184 182 180 181 182 182 182 178 176 180 177 179 180 179 176 174 178 176 177 163 164 152 151 149 147 142 127 125 112 104 94 95 94 81 73 65 66 57 46 32 24 26 26 24 10 5 5 5 5 5 3 4 5 5 0 0 0 0 0 0 0 0 0 0 0 0 0 0 0 0 0 0 0 0 0 0 0 0 0 0 0 0 0 0 0 0 0 0 0 0 0 0 0 0 0 0 0 0 0 0 0 0 0 0 0 0 0 0 0 0 0 0 0 0 0 0 0 0 0 0 0 0 0 0 0 0 0 0 0 0 0 0 0 0 0 0 0 0 0 0 0 0 0 0 0 0 0 0 0
0 0 0 0 0 0 0 0 0 0 0 0 0 0 0 0 0 0 0 0 0 0 0 0 0 0 0 0 0 0 0 0 0 0 0 0 0 0 0 0 0 0 0 0 0 0 0 0 0 0 0 0 0 0 0 0 0 0 0 0 0 0 0 0 0 0 0 0 0 0 0 0 0 0 0 0 0 0 0 0 0 0 0 0 0 0 0 0 5 4 4 9 18 18 18 18 19 19 19 24 35 35 39 56 66 86 104 108 111 109 120 124 141 141 135 143 143 151 149 153 154 153 158 167 170 165 170 168 168 161 168 166 166 167 169 167 172 172 173 173 172 171 170 170 168 173 172 168 174 170 172 167 170 171 170 169 167 168 163 170 171 170 170 168 165 167 160 166 162 158 169 169 168 167 166 166 166 166 172 163 170 170 174 177 175 176 177 176 176 175 177 176 175 177 176 177 178 163 180 181 180 181 183 177 183 183 184 184 181 182 183 172 183 173 177 181 177 178 180 178 176 175 177 177 166 165 161 150 146 148 144 137 123 123 107 101 97 98 81 82 73 69 62 51 40 24 24 28 28 20 5 5 5 5 5 4 4 5 5 0 0 0 0 0 0 0 0 0 0 0 0 0 0 0 0 0 0 0 0 0 0 0 0 0 0 0 0 0 0 0 0 0 0 0 0 0 0 0 0 0 0 0 0 0 0 0 0 0 0 0 0 0 0 0 0 0 0 0 0 0 0 0 0 0 0 0 0 0 0 0 0 0 0 0 0 0 0 0 0 0 0 0 0 0 0 0 0 0 0 0 0 0 0 0 0
0 0 0 0 0 0 0 0 0 0 0 0 0 0 0 0 0 0 0 0 0 0 0 0 0 0 0 0 0 0 0 0 0 0 0 0 0 0 0 0 0 0 0 0 0 0 0 0 0 0 0 0 0 0 0 0 0 0 0 0 0 0 0 0 0 0 0 0 0 0 0 0 0 0 0 0 0 0 0 0 0 0 0 0 0 0 0 0 0 4 4 4 13 18 18 18 19 19 19 19 30 35 39 51 57 72 100 104 112 109 114 124 128 141 141 142 143 151 152 152 155 153 158 157 170 170 164 168 168 155 168 165 164 168 169 173 172 173 172 173 172 166 170 170 168 174 173 173 175 174 171 167 171 166 165 169 168 169 168 164 163 169 169 168 163 168 162 167 168 156 167 167 167 168 166 167 168 166 174 169 170 170 175 175 174 176 175 176 172 178 178 175 177 176 178 179 173 174 181 182 183 183 183 183 182 183 183 184 182 182 179 182 178 179 178 181 177 178 178 176 176 176 174 171 167 165 154 150 147 139 140 123 124 112 104 99 96 88 80 72 65 66 52 45 27 23 26 27 24 9 5 5 5 5 4 3 5 5 5 0 0 0 0 0 0 0 0 0 0 0 0 0 0 0 0 0 0 0 0 0 0 0 0 0 0 0 0 0 0 0 0 0 0 0 0 0 0 0 0 0 0 0 0 0 0 0 0 0 0 0 0 0 0 0 0 0 0 0 0 0 0 0 0 0 0 0 0 0 0 0 0 0 0 0 0 0 0 0 0 0 0 0 0 0 0 0 0 0 0 0 0 0 0 0 0
0 0 0 0 0 0 0 0 0 0 0 0 0 0 0 0 0 0 0 0 0 0 0 0 0 0 0 0 0 0 0 0 0 0 0 0 0 0 0 0 0 0 0 0 0 0 0 0 0 0 0 0 0 0 0 0 0 0 0 0 0 0 0 0 0 0 0 0 0 0 0 0 0 0 0 0 0 0 0 0 0 0 0 0 0 0 0 0 0 0 4 4 9 13 18 18 18 19 19 19 24 30 35 38 57 62 82 104 107 111 109 119 128 136 141 141 143 148 152 151 154 153 155 157 166 170 170 162 167 159 167 165 166 168 171 168 172 174 173 169 172 172 168 171 170 170 174 174 175 170 173 173 172 170 170 170 171 170 172 165 164 168 168 168 163 168 163 169 169 157 168 169 168 169 169 169 162 165 171 167 168 168 174 174 175 175 176 177 179 179 178 176 176 171 177 172 179 175 182 183 178 182 184 184 183 183 184 184 183 182 183 182 183 179 178 181 176 178 177 176 177 175 174 165 165 157 151 142 149 148 135 121 123 107 101 94 99 81 78 67 68 66 46 39 23 24 28 24 20 5 5 5 5 5 3 4 5 5 0 0 0 0 0 0 0 0 0 0 0 0 0 0 0 0 0 0 0 0 0 0 0 0 0 0 0 0 0 0 0 0 0 0 0 0 0 0 0 0 0 0 0 0 0 0 0 0 0 0 0 0 0 0 0 0 0 0 0 0 0 0 0 0 0 0 0 0 0 0 0 0 0 0 0 0 0 0 0 0 0 0 0 0 0 0 0 0 0 0 0 0 0 0 0 0 0
0 0 0 0 0 0 0 0 0 0 0 0 0 0 0 0 0 0 0 0 0 0 0 0 0 0 0 0 0 0 0 0 0 0 0 0 0 0 0 0 0 0 0 0 0 0 0 0 0 0 0 0 0 0 0 0 0 0 0 0 0 0 0 0 0 0 0 0 0 0 0 0 0 0 0 0 0 0 0 0 0 0 0 0 0 0 0 0 0 0 4 4 4 13 18 18 18 19 19 19 19 30 30 33 51 58 72 96 103 107 109 115 123 128 136 141 142 145 152 153 153 153 152 157 156 171 169 166 161 159 167 162 166 168 171 173 173 174 173 174 172 171 172 171 172 173 174 173 171 173 173 172 172 170 166 170 171 171 172 171 170 164 168 167 164 164 164 170 171 161 165 168 169 170 169 170 168 165 171 161 167 172 173 174 174 174 177 178 179 178 178 176 176 177 168 179 180 171 183 184 184 184 179 184 179 182 184 185 183 182 178 182 183 178 178 181 176 176 176 176 175 173 164 166 163 156 147 145 143 140 121 123 108 101 98 96 94 81 71 66 66 52 41 21 23 26 27 24 9 5 5 5 5 4 4 5 5 0 0 0 0 0 0 0 0 0 0 0 0 0 0 0 0 0 0 0 0 0 0 0 0 0 0 0 0 0 0 0 0 0 0 0 0 0 0 0 0 0 0 0 0 0 0 0 0 0 0 0 0 0 0 0 0 0 0 0 0 0 0 0 0 0 0 0 0 0 0 0 0 0 0 0 0 0 0 0 0 0 0 0 0 0 0 0 0 0 0 0 0 0 0 0 0 0 0
0 0 0 0 0 0 0 0 0 0 0 0 0 0 0 0 0 0 0 0 0 0 0 0 0 0 0 0 0 0 0 0 0 0 0 0 0 0 0 0 0 0 0 0 0 0 0 0 0 0 0 0 0 0 0 0 0 0 0 0 0 0 0 0 0 0 0 0 0 0 0 0 0 0 0 0 0 0 0 0 0 0 0 0 0 0 0 0 0 0 0 4 4 4 13 18 18 19 19 14 19 25 30 33 38 58 62 82 99 102 109 109 123 128 136 137 142 144 147 153 151 154 152 157 156 162 170 167 165 153 166 165 166 168 171 173 173 174 174 174 173 172 172 170 172 175 173 171 174 174 172 172 171 170 171 172 171 172 172 170 169 168 161 167 164 169 164 170 172 163 172 164 170 171 170 165 169 164 166 167 167 172 174 173 173 175 178 174 178 178 178 177 177 173 179 180 181 176 184 184 184 184 184 184 183 178 184 185 181 181 177 181 182 178 177 176 176 174 175 171 173 174 165 162 157 158 142 143 135 132 119 121 106 101 88 93 81 72 66 69 56 46 33 23 23 29 24 13 5 5 5 5 5 3 4 5 5 0 0 0 0 0 0 0 0 0 0 0 0 0 0 0 0 0 0 0 0 0 0 0 0 0 0 0 0 0 0 0 0 0 0 0 0 0 0 0 0 0 0 0 0 0 0 0 0 0 0 0 0 0 0 0 0 0 0 0 0 0 0 0 0 0 0 0 0 0 0 0 0 0 0 0 0 0 0 0 0 0 0 0 0 0 0 0 0 0 0 0 0 0 0 0 0 0 0
0 0 0 0 0 0 0 0 0 0 0 0 0 0 0 0 0 0 0 0 0 0 0 0 0 0 0 0 0 0 0 0 0 0 0 0 0 0 0 0 0 0 0 0 0 0 0 0 0 0 0 0 0 0 0 0 0 0 0 0 0 0 0 0 0 0 0 0 0 0 0 0 0 0 0 0 0 0 0 0 0 0 0 0 0 0 0 0 0 0 0 4 4 4 13 13 18 19 19 19 19 25 24 29 33 52 58 72 92 103 105 108 119 123 127 137 137 143 138 149 153 153 152 153 158 162 161 168 165 157 159 164 167 168 171 173 173 173 173 173 174 169 172 166 172 170 174 176 176 174 173 171 171 171 171 171 173 172 172 171 169 168 168 163 164 168 164 169 171 164 172 172 173 172 171 170 170 160 170 167 167 173 173 173 165 177 177 178 178 178 177 172 171 179 180 181 182 177 185 185 185 185 185 185 179 182 184 184 178 180 181 180 181 183 178 180 174 170 175 177 173 168 160 159 157 150 147 146 138 120 121 107 104 98 95 95 81 71 72 61 51 40 25 25 26 27 22 9 5 5 5 5 4 4 5 5 0 0 0 0 0 0 0 0 0 0 0 0 0 0 0 0 0 0 0 0 0 0 0 0 0 0 0 0 0 0 0 0 0 0 0 0 0 0 0 0 0 0 0 0 0 0 0 0 0 0 0 0 0 0 0 0 0 0 0 0 0 0 0 0 0 0 0 0 0 0 0 0 0 0 0 0 0 0 0 0 0 0 0 0 0 0 0 0 0 0 0 0 0 0 0 0 0 0 0
0 0 0 0 0 0 0 0 0 0 0 0 0 0 0 0 0 0 0 0 0 0 0 0 0 0 0 0 0 0 0 0 0 0 0 0 0 0 0 0 0 0 0 0 0 0 0 0 0 0 0 0 0 0 0 0 0 0 0 0 0 0 0 0 0 0 0 0 0 0 0 0 0 0 0 0 0 0 0 0 0 0 0 0 0 0 0 0 0 0 0 0 4 4 4 13 13 19 19 19 19 19 25 24 28 39 52 68 82 98 101 109 114 118 128 137 137 137 147 149 154 153 151 153 157 157 160 167 164 155 164 159 168 168 162 173 172 173 173 173 174 173 172 170 172 171 174 176 176 176 173 172 172 172 173 173 172 172 172 165 168 169 169 168 159 167 164 170 172 164 174 173 172 173 163 169 170 166 172 168 168 173 174 168 176 177 178 178 178 177 177 173 177 179 181 181 182 177 184 185 185 186 185 184 184 184 183 183 182 180 176 179 181 182 178 180 173 174 176 174 173 164 162 154 151 150 145 135 131 112 116 105 100 93 93 83 72 66 68 56 41 27 24 24 29 24 13 5 5 5 5 5 3 5 5 0 0 0 0 0 0 0 0 0 0 0 0 0 0 0 0 0 0 0 0 0 0 0 0 0 0 0 0 0 0 0 0 0 0 0 0 0 0 0 0 0 0 0 0 0 0 0 0 0 0 0 0 0 0 0 0 0 0 0 0 0 0 0 0 0 0 0 0 0 0 0 0 0 0 0 0 0 0 0 0 0 0 0 0 0 0 0 0 0 0 0 0 0 0 0 0 0 0 0 0
0 0 0 0 0 0 0 0 0 0 0 0 0 0 0 0 0 0 0 0 0 0 0 0 0 0 0 0 0 0 0 0 0 0 0 0 0 0 0 0 0 0 0 0 0 0 0 0 0 0 0 0 0 0 0 0 0 0 0 0 0 0 0 0 0 0 0 0 0 0 0 0 0 0 0 0 0 0 0 0 0 0 0 0 0 0 0 0 0 0 0 0 4 4 4 4 13 18 19 19 19 19 25 24 28 29 52 63 72 91 97 99 110 122 123 128 137 137 141 146 150 154 150 153 154 156 159 158 163 154 165 163 162 167 172 172 171 172 172 173 173 175 167 170 172 171 175 172 175 176 175 173 173 172 173 175 175 173 172 172 166 170 169 168 164 163 165 170 171 165 175 175 174 172 172 172 172 167 171 170 168 174 175 176 176 177 179 178 178 177 172 179 178 179 180 181 183 177 183 184 179 185 184 184 183 183 183 183 182 179 181 180 182 182 178 176 173 175 177 168 167 162 153 156 151 146 141 129 119 121 102 102 97 93 90 80 70 71 65 50 39 25 25 27 27 16 9 5 5 5 5 3 4 5 5 0 0 0 0 0 0 0 0 0 0 0 0 0 0 0 0 0 0 0 0 0 0 0 0 0 0 0 0 0 0 0 0 0 0 0 0 0 0 0 0 0 0 0 0 0 0 0 0 0 0 0 0 0 0 0 0 0 0 0 0 0 0 0 0 0 0 0 0 0 0 0 0 0 0 0 0 0 0 0 0 0 0 0 0 0 0 0 0 0 0 0 0 0 0 0 0 0 0 0 0
0 0 0 0 0 0 0 0 0 0 0 0 0 0 0 0 0 0 0 0 0 0 0 0 0 0 0 0 0 0 0 0 0 0 0 0 0 0 0 0 0 0 0 0 0 0 0 0 0 0 0 0 0 0 0 0 0 0 0 0 0 0 0 0 0 0 0 0 0 0 0 0 0 0 0 0 0 0 0 0 0 0 0 0 0 0 0 0 0 0 0 0 0 4 4 4 13 13 19 19 19 19 25 24 23 29 34 52 67 82 94 99 104 114 122 128 137 136 141 135 150 153 150 145 154 156 158 157 154 155 165 163 166 161 171 172 171 172 171 172 170 174 172 174 172 171 172 167 175 175 176 175 176 174 174 175 175 174 172 172 171 171 169 169 160 168 161 171 172 165 174 174 174 174 173 173 176 169 171 169 168 174 172 175 176 178 179 178 177 171 177 180 175 175 180 175 181 176 182 183 183 185 185 184 183 182 182 182 181 176 180 179 181 182 177 175 173 176 173 170 161 158 155 150 149 145 146 130 116 116 104 100 93 91 87 66 68 64 50 45 26 25 25 29 18 13 5 5 5 5 4 4 5 5 0 0 0 0 0 0 0 0 0 0 0 0 0 0 0 0 0 0 0 0 0 0 0 0 0 0 0 0 0 0 0 0 0 0 0 0 0 0 0 0 0 0 0 0 0 0 0 0 0 0 0 0 0 0 0 0 0 0 0 0 0 0 0 0 0 0 0 0 0 0 0 0 0 0 0 0 0 0 0 0 0 0 0 0 0 0 0 0 0 0 0 0 0 0 0 0 0 0 0 0 0
